0.23073245584964752 -0.561797022819519 -0.09651309251785278
0.2370421439409256 -0.5572990775108337 -0.09151517599821091
0.19977107644081116 -0.5534757375717163 -0.11252547800540924
0.2073126584291458 -0.5480846166610718 -0.10509160161018372
0.17672571539878845 -0.5873764157295227 -0.12637871503829956
0.1777772456407547 -0.5842398405075073 -0.11643098294734955
0.18630461394786835 -0.5803112387657166 -0.11984372138977051
0.18553265929222107 -0.5848077535629272 -0.12634903192520142
0.20030269026756287 -0.547234296798706 -0.1263350248336792
0.1886082887649536 -0.5549525022506714 -0.11547931283712387
0.18686658143997192 -0.5634856820106506 -0.11646807193756104
0.18743084371089935 -0.5693596005439758 -0.11025670915842056
0.17816433310508728 -0.5777024030685425 -0.1218746230006218
0.18212464451789856 -0.5633945465087891 -0.12454081326723099
0.18270078301429749 -0.5735222101211548 -0.11566676199436188
0.18565143644809723 -0.5410452485084534 -0.11095824837684631
0.20486600697040558 -0.5528730154037476 -0.13025982677936554
0.20434892177581787 -0.5447288155555725 -0.13348336517810822
0.20687197148799896 -0.5498788356781006 -0.13848482072353363
0.18668578565120697 -0.5415544509887695 -0.14371320605278015
0.18888172507286072 -0.5504732728004456 -0.12501946091651917
0.1954679787158966 -0.5453333258628845 -0.1328304558992386
0.19438672065734863 -0.5414678454399109 -0.1399010568857193
0.18854467570781708 -0.5500516295433044 -0.13322661817073822
0.18255604803562164 -0.5903093814849854 -0.12144794315099716
0.18517962098121643 -0.6017805933952332 -0.11745518445968628
0.17407852411270142 -0.5759670734405518 -0.13405673205852509
0.18290123343467712 -0.557003915309906 -0.13325920701026917
0.1760711818933487 -0.5841795802116394 -0.1374761313199997
0.18002775311470032 -0.5651043057441711 -0.13387203216552734
0.18533620238304138 -0.5416675806045532 -0.15202470123767853
0.18124987185001373 -0.5749993324279785 -0.10557742416858673
0.18128365278244019 -0.5562595129013062 -0.10069023072719574
0.18448175489902496 -0.5533204674720764 -0.10691171139478683
0.19205011427402496 -0.5709322094917297 -0.11993686854839325
0.19856290519237518 -0.5605358481407166 -0.12396158277988434
0.20947694778442383 -0.5681958794593811 -0.09806500375270844
0.23431672155857086 -0.5468758344650269 -0.08740250021219254
0.2284533530473709 -0.5556908249855042 -0.0912938117980957
0.21522025763988495 -0.5608730316162109 -0.09604570269584656
0.22082306444644928 -0.5560181736946106 -0.09421317279338837
0.19544801115989685 -0.5646839141845703 -0.09693706780672073
0.1852640062570572 -0.5627605319023132 -0.08973730355501175
0.20934182405471802 -0.5560983419418335 -0.10083681344985962
0.2026694118976593 -0.5612586736679077 -0.10036998242139816
0.19535575807094574 -0.5553851127624512 -0.09751791507005692
0.18839535117149353 -0.5543970465660095 -0.09336276352405548
0.18110719323158264 -0.545321524143219 -0.10338791459798813
0.1893693506717682 -0.5565906167030334 -0.13846281170845032
0.18288038671016693 -0.5990628600120544 -0.13460956513881683
0.1823684126138687 -0.5745109915733337 -0.1394970417022705
0.1954575777053833 -0.5645545721054077 -0.13479545712471008
0.20328707993030548 -0.558280348777771 -0.13665945827960968
0.19269904494285583 -0.5522450804710388 -0.14494071900844574
0.18232843279838562 -0.5910705327987671 -0.13534553349018097
0.18835408985614777 -0.5674482583999634 -0.13439781963825226
0.19083477556705475 -0.5713961720466614 -0.12784454226493835
0.18761199712753296 -0.5795585513114929 -0.13530533015727997
0.1760363131761551 -0.6019296050071716 -0.13882942497730255
0.19437721371650696 -0.6008667349815369 -0.08841288834810257
0.18944774568080902 -0.5841513872146606 -0.08509951084852219
0.18511603772640228 -0.5710742473602295 -0.08926074951887131
0.1998559981584549 -0.5713330507278442 -0.09998435527086258
0.19549700617790222 -0.5801551938056946 -0.09438729286193848
0.21199487149715424 -0.5567998290061951 -0.10933654755353928
0.21918706595897675 -0.5526725053787231 -0.10559152066707611
0.19441547989845276 -0.5971531271934509 -0.11109425127506256
0.19804485142230988 -0.5866090655326843 -0.11586537212133408
0.1914844810962677 -0.5917483568191528 -0.11791874468326569
0.20205199718475342 -0.568378746509552 -0.11788511276245117
0.20534542202949524 -0.5781947374343872 -0.11807060241699219
0.21237841248512268 -0.5706252455711365 -0.11477481573820114
0.23690611124038696 -0.5574256181716919 -0.10049368441104889
0.2196786105632782 -0.5607547760009766 -0.1117236465215683
0.2262321263551712 -0.564525306224823 -0.10624467581510544
0.22737126052379608 -0.5539249777793884 -0.1070709154009819
0.2406666874885559 -0.5506682991981506 -0.10236814618110657
0.2445032000541687 -0.5540947914123535 -0.09534966945648193
0.19837364554405212 -0.596885085105896 -0.10302987694740295
0.2166742980480194 -0.5697882175445557 -0.10031497478485107
0.19936144351959229 -0.6054139733314514 -0.09641510993242264
0.19436593353748322 -0.6098477244377136 -0.10770805180072784
0.18113146722316742 -0.6038094758987427 -0.12791897356510162
0.2033042013645172 -0.5808731913566589 -0.10990869253873825
0.20071986317634583 -0.5791739225387573 -0.10184343159198761
0.19729185104370117 -0.5914597511291504 -0.08958255499601364
0.20809267461299896 -0.5750843286514282 -0.10921722650527954
0.19855257868766785 -0.588480532169342 -0.09779765456914902
0.24361750483512878 -0.5389765501022339 -0.09007000923156738
0.25388264656066895 -0.5378789305686951 -0.0803370252251625
0.27525585889816284 -0.5302246809005737 -0.06578360497951508
0.263051837682724 -0.5365850329399109 -0.07317950576543808
0.28388625383377075 -0.5277819037437439 -0.05977252498269081
0.26621901988983154 -0.5312456488609314 -0.0785016268491745
0.2795296013355255 -0.5279759168624878 -0.07183732092380524
0.26023656129837036 -0.5336203575134277 -0.08572106063365936
0.2644779086112976 -0.5446637868881226 -0.06969209015369415
0.2700018584728241 -0.5398865342140198 -0.05555728077888489
0.2745746672153473 -0.5328645706176758 -0.05675819143652916
0.27965211868286133 -0.5456783175468445 -0.05819747969508171
0.26049524545669556 -0.542756974697113 -0.09313596785068512
0.27924174070358276 -0.5374658703804016 -0.079454205930233
0.2924536466598511 -0.5337444543838501 -0.07142534852027893
0.28482311964035034 -0.5329572558403015 -0.07504545152187347
0.2920157313346863 -0.5248821973800659 -0.06572699546813965
0.27114740014076233 -0.535597562789917 -0.08482459932565689
0.2669430077075958 -0.5375370383262634 -0.09298127144575119
0.2525389492511749 -0.5396658778190613 -0.09386997669935226
0.28290924429893494 -0.5464732646942139 -0.044902391731739044
0.283479243516922 -0.5394338369369507 -0.04944313317537308
0.24719087779521942 -0.5421093106269836 -0.08217708766460419
0.27214550971984863 -0.5459821820259094 -0.08625049144029617
0.27642545104026794 -0.544804036617279 -0.07795998454093933
0.25928980112075806 -0.5488074421882629 -0.08021677285432816
0.25042665004730225 -0.5530261993408203 -0.08502427488565445
0.2872708737850189 -0.5417385101318359 -0.061142269521951675
0.26769739389419556 -0.5466434955596924 -0.07768646627664566
0.2776657044887543 -0.5443515181541443 -0.06645510345697403
0.25744199752807617 -0.5499702095985413 -0.0894545316696167
0.28767773509025574 -0.5397522449493408 -0.06958912312984467
0.24703995883464813 -0.5442996025085449 -0.09811007231473923
0.30782052874565125 -0.5337996482849121 -0.057907357811927795
0.3249239921569824 -0.5237501859664917 -0.046038057655096054
0.2990451157093048 -0.5283237099647522 -0.06673998385667801
0.3060669004917145 -0.5277923345565796 -0.062375131994485855
0.3125803768634796 -0.5262833833694458 -0.05645078048110008
0.32353463768959045 -0.5334386825561523 -0.03605816140770912
0.32252830266952515 -0.5222610831260681 -0.038359757512807846
0.31602028012275696 -0.5285227298736572 -0.03783440962433815
0.29807886481285095 -0.5364246964454651 -0.06320314109325409
0.32251474261283875 -0.5346354246139526 -0.04489448294043541
0.3198927938938141 -0.5288522839546204 -0.053292497992515564
0.33000898361206055 -0.5308915376663208 -0.04181691259145737
0.3020557463169098 -0.5223831534385681 -0.05273747816681862
0.29490596055984497 -0.5291242599487305 -0.052807170897722244
0.3054432272911072 -0.5346653461456299 -0.04993395507335663
0.2926522493362427 -0.5235432386398315 -0.05731751769781113
0.31290894746780396 -0.533092737197876 -0.043318696320056915
0.3101305067539215 -0.5226686000823975 -0.04753484949469566
0.3460395634174347 -0.5110493898391724 -0.03826281428337097
0.34251895546913147 -0.525519609451294 -0.02109519951045513
0.3414766490459442 -0.5200084447860718 -0.027417821809649467
0.3552848994731903 -0.5282236337661743 -0.011787678115069866
0.34081149101257324 -0.5177255868911743 -0.0359392873942852
0.3508729636669159 -0.49859583377838135 -0.0559723824262619
0.3469763696193695 -0.5063033699989319 -0.049996256828308105
0.3432243764400482 -0.5334901809692383 -0.03303184732794762
0.339741051197052 -0.5336690545082092 -0.0235754381865263
0.33351224660873413 -0.5337515473365784 -0.03005347214639187
0.348950058221817 -0.5249714851379395 -0.04173039644956589
0.3306329548358917 -0.5210297107696533 -0.038844458758831024
0.3290844261646271 -0.5221642851829529 -0.031093722209334373
0.35484057664871216 -0.5355220437049866 -0.0231886375695467
0.3630615174770355 -0.5399997234344482 -0.014455046504735947
0.35545021295547485 -0.5051141381263733 -0.060969214886426926
0.35346078872680664 -0.5156744122505188 -0.04915814846754074
0.35482168197631836 -0.5054298639297485 -0.053411927074193954
0.34745505452156067 -0.5116720795631409 -0.06030305102467537
0.3380829989910126 -0.5202154517173767 -0.04321778193116188
0.34463128447532654 -0.4952201247215271 -0.06280607730150223
0.34496334195137024 -0.5031753778457642 -0.06326539814472198
0.3421562612056732 -0.513232946395874 -0.0490264855325222
0.3509470522403717 -0.5261387228965759 -0.02765035443007946
0.3635638952255249 -0.5309165120124817 -0.014721989631652832
0.35455238819122314 -0.5167807936668396 -0.036475103348493576
0.3548133671283722 -0.5269755125045776 -0.019671758636832237
0.338461309671402 -0.5295292735099792 -0.040215011686086655
0.35335755348205566 -0.5373518466949463 -0.011308589018881321
0.39123207330703735 -0.537377655506134 0.017800629138946533
0.3599855899810791 -0.5317313075065613 -0.00406892504543066
0.37681493163108826 -0.5344526767730713 0.0075836763717234135
0.366079717874527 -0.5331324934959412 0.000321546831401065
0.39080536365509033 -0.5424073338508606 0.007822721265256405
0.3799970746040344 -0.5451055765151978 -0.005830001085996628
0.3763916492462158 -0.5376577377319336 -0.010758552700281143
0.369058221578598 -0.5343607068061829 -0.010554674081504345
0.3782229721546173 -0.5320490598678589 -0.002741826931014657
0.39706137776374817 -0.5422890782356262 0.014269661158323288
0.3876630961894989 -0.5417997241020203 -0.005963477306067944
0.3845538794994354 -0.5385017991065979 0.0026554360520094633
0.40915754437446594 -0.5476014614105225 0.024332573637366295
0.3983764350414276 -0.5390455722808838 0.023890476673841476
0.39395201206207275 -0.5485259294509888 0.018202753737568855
0.3797904849052429 -0.5467187166213989 0.008559796027839184
0.37592458724975586 -0.5450190305709839 0.0016245282022282481
0.3697005808353424 -0.5397717356681824 0.003043634817004204
0.4008062481880188 -0.5493655800819397 0.028409626334905624
0.3663077652454376 -0.5424626469612122 -0.005282191094011068
0.38052693009376526 -0.5437028408050537 0.01658106967806816
0.3933786153793335 -0.5447326898574829 0.025165999308228493
0.4288805425167084 -0.5591168403625488 0.042111754417419434
0.4071063995361328 -0.5441650152206421 0.03305969014763832
0.4297982454299927 -0.5548432469367981 0.035719338804483414
0.42335644364356995 -0.5498590469360352 0.0326804555952549
0.43177005648612976 -0.565650463104248 0.0475907139480114
0.43288522958755493 -0.5635663866996765 0.06128585338592529
0.4232274889945984 -0.5584919452667236 0.05466272681951523
0.4256935119628906 -0.5493278503417969 0.049630988389253616
0.43208640813827515 -0.5541707277297974 0.05224008485674858
0.4218226969242096 -0.5444368124008179 0.04485338553786278
0.415432333946228 -0.5449291467666626 0.03545325994491577
0.43108534812927246 -0.5418316721916199 0.04204235225915909
0.4167696535587311 -0.5582579970359802 0.04586989805102348
0.40867453813552856 -0.5542184710502625 0.034613095223903656
0.4165639579296112 -0.5568457841873169 0.03468960151076317
0.42701801657676697 -0.565772294998169 0.05362771451473236
0.40950581431388855 -0.5489910840988159 0.040515512228012085
-0.0024228182155638933 -0.7242213487625122 -0.09576524049043655
-0.003813234157860279 -0.7108599543571472 -0.09705283492803574
-0.006148953456431627 -0.7019844055175781 -0.10104779154062271
0.025760473683476448 -0.736825704574585 -0.08596715331077576
0.03981553390622139 -0.7574970126152039 -0.08844618499279022
0.033372923731803894 -0.7376130223274231 -0.08400838822126389
0.027784431353211403 -0.7275826930999756 -0.08718695491552353
0.017050668597221375 -0.741224467754364 -0.0939650610089302
0.02938736602663994 -0.7495481371879578 -0.09000519663095474
0.010703528299927711 -0.737838089466095 -0.09825915098190308
0.010484668426215649 -0.7274106740951538 -0.08970899879932404
0.04589825123548508 -0.7577969431877136 -0.08278153091669083
0.03489828482270241 -0.7214548587799072 -0.10201066732406616
0.04021811857819557 -0.7269288301467896 -0.10726321488618851
0.04567510262131691 -0.7284022569656372 -0.10198168456554413
0.017967715859413147 -0.7193500995635986 -0.09025489538908005
0.055330775678157806 -0.7351503372192383 -0.08785562962293625
0.048479318618774414 -0.7307358384132385 -0.09125359356403351
0.05682758986949921 -0.7353941202163696 -0.10316270589828491
0.0035276056732982397 -0.7308152914047241 -0.09686195850372314
0.0216675978153944 -0.7149911522865295 -0.10854731500148773
0.013260427862405777 -0.7093484401702881 -0.1015906110405922
0.0010787834180518985 -0.7010330557823181 -0.10614632070064545
0.027516715228557587 -0.7170376777648926 -0.10172228515148163
0.016040557995438576 -0.7126978039741516 -0.09429794549942017
0.041247691959142685 -0.7260875701904297 -0.09400944411754608
0.032748013734817505 -0.7210873365402222 -0.09425047785043716
-0.0030655101872980595 -0.7283586859703064 -0.10316541790962219
-0.014160564169287682 -0.718635618686676 -0.10309283435344696
0.008268808014690876 -0.7179072499275208 -0.09143245965242386
0.005821769125759602 -0.7099639773368835 -0.09592371433973312
-0.011190149933099747 -0.7227038741111755 -0.11239860206842422
0.02586299367249012 -0.747124433517456 -0.1055591031908989
0.04257061704993248 -0.759234607219696 -0.10015752166509628
0.0457359217107296 -0.7622029185295105 -0.09377498179674149
0.012786801904439926 -0.7388996481895447 -0.10547423362731934
0.03150893375277519 -0.7526861429214478 -0.1000927984714508
0.019528435543179512 -0.7405215501785278 -0.11060682684183121
-0.0015241584042087197 -0.72873854637146 -0.11181675642728806
0.00588821480050683 -0.7320330739021301 -0.11277151852846146
0.01372592058032751 -0.7340091466903687 -0.11438041180372238
0.03787058964371681 -0.7450618743896484 -0.08292652666568756
0.04509410262107849 -0.7451884746551514 -0.08074129372835159
0.04525964707136154 -0.7361881136894226 -0.08408874273300171
0.028806326910853386 -0.7289838194847107 -0.1152443215250969
0.021491557359695435 -0.7295213937759399 -0.1166621521115303
0.006271836347877979 -0.7270832657814026 -0.11881474405527115
0.005576278083026409 -0.7058411836624146 -0.11823150515556335
0.017620164901018143 -0.7181903123855591 -0.11511057615280151
0.044311217963695526 -0.7379947900772095 -0.11104738712310791
-0.010035970248281956 -0.7170792818069458 -0.12380562722682953
-0.0016394187696278095 -0.7203471660614014 -0.12332931905984879
0.034042272716760635 -0.7371231317520142 -0.11440491676330566
-0.0016124352114275098 -0.705301821231842 -0.12331810593605042
0.026622608304023743 -0.7411659955978394 -0.11311537027359009
0.048380348831415176 -0.7577031850814819 -0.107233427464962
0.05097810924053192 -0.7430271506309509 -0.11038334667682648
0.055732253938913345 -0.7633764147758484 -0.10411877930164337
0.013897324912250042 -0.7252432703971863 -0.11822827905416489
0.011550323106348515 -0.7082353234291077 -0.11162640154361725
0.0559958852827549 -0.7522626519203186 -0.10961773246526718
0.045734819024801254 -0.7512925863265991 -0.1107533797621727
0.0382450632750988 -0.752248227596283 -0.10845319926738739
0.006651764269918203 -0.7140581607818604 -0.12202653288841248
-0.027763063088059425 -0.7003680467605591 -0.10518824309110641
-0.020577015355229378 -0.6947003602981567 -0.10513864457607269
-0.033064138144254684 -0.6793404221534729 -0.11426100134849548
-0.029013322666287422 -0.6851829290390015 -0.11106161028146744
-0.01908436045050621 -0.6883985996246338 -0.11048486083745956
-0.01249763648957014 -0.6982538104057312 -0.10315540432929993
-0.03346430882811546 -0.6674530506134033 -0.12625709176063538
-0.03208615258336067 -0.707167387008667 -0.11365918815135956
-0.02606438659131527 -0.7083085179328918 -0.10668332874774933
-0.01463144738227129 -0.7065329551696777 -0.10077404230833054
-0.03504641726613045 -0.6951866149902344 -0.10776060819625854
-0.028233859688043594 -0.6743081212043762 -0.1268218606710434
-0.024677621200680733 -0.6823193430900574 -0.11831235885620117
-0.00904320739209652 -0.6937867403030396 -0.10913324356079102
-0.03750617057085037 -0.6720637083053589 -0.12068265676498413
-0.0431717187166214 -0.702783465385437 -0.11870098114013672
-0.04936877638101578 -0.6986038684844971 -0.12513543665409088
-0.02047784812748432 -0.716136634349823 -0.10881483554840088
-0.024210043251514435 -0.7124873399734497 -0.12005499005317688
-0.030437542125582695 -0.7082812786102295 -0.12220442295074463
-0.05929112806916237 -0.6952343583106995 -0.1247493326663971
-0.047682784497737885 -0.6931426525115967 -0.11074385792016983
-0.05493424832820892 -0.6975077390670776 -0.11456860601902008
-0.05411679670214653 -0.6821526288986206 -0.11211855709552765
-0.0455344021320343 -0.6800586581230164 -0.11250239610671997
-0.031105544418096542 -0.6656423807144165 -0.13446226716041565
-0.032640490680933 -0.6856837868690491 -0.13661475479602814
-0.014721049927175045 -0.7036924958229065 -0.12884531915187836
-0.040828462690114975 -0.701039731502533 -0.1266656517982483
-0.04892247915267944 -0.6908410787582397 -0.13790462911128998
-0.043348945677280426 -0.6953412294387817 -0.1349535435438156
-0.03581789508461952 -0.6998671293258667 -0.13287243247032166
-0.041439034044742584 -0.6779940128326416 -0.1373714655637741
-0.003955025225877762 -0.6980094909667969 -0.12003564834594727
-0.04095903038978577 -0.6857047080993652 -0.13796716928482056
-0.008800727315247059 -0.7090469002723694 -0.12676353752613068
-0.03163668513298035 -0.6765410900115967 -0.13661517202854156
-0.025028035044670105 -0.6836615800857544 -0.13087114691734314
-0.014662199653685093 -0.690533459186554 -0.12176139652729034
-0.02779909409582615 -0.7014402747154236 -0.1333368867635727
-0.02332417108118534 -0.707607090473175 -0.12918277084827423
-0.02009706385433674 -0.698514997959137 -0.13133202493190765
-0.06404168903827667 -0.6914328336715698 -0.11586891859769821
-0.06899400800466537 -0.6867203116416931 -0.11957549303770065
-0.06495659798383713 -0.6766190528869629 -0.11672378331422806
-0.0917811468243599 -0.6717372536659241 -0.1260288506746292
-0.07667043805122375 -0.6772042512893677 -0.12134766578674316
-0.08101873099803925 -0.6824296712875366 -0.12550769746303558
-0.08705302327871323 -0.6806665062904358 -0.1360718160867691
-0.09644508361816406 -0.6768302321434021 -0.1380312293767929
-0.03353895619511604 -0.6579316854476929 -0.13392746448516846
-0.038607627153396606 -0.6629700064659119 -0.1299523413181305
-0.04550236091017723 -0.6702526211738586 -0.12244874238967896
-0.03447696194052696 -0.6459145545959473 -0.14396944642066956
-0.037178631871938705 -0.6384507417678833 -0.14465361833572388
-0.04313238710165024 -0.6471462845802307 -0.13971790671348572
-0.06228415295481682 -0.6919639110565186 -0.133378267288208
-0.07041075825691223 -0.6881341934204102 -0.13621987402439117
-0.06710611283779144 -0.6913377046585083 -0.1269402652978897
-0.04139026254415512 -0.6461887955665588 -0.14748261868953705
-0.041131116449832916 -0.65540611743927 -0.14148542284965515
-0.03940887749195099 -0.6629197597503662 -0.13904236257076263
-0.04567522928118706 -0.6686164736747742 -0.13026484847068787
-0.059946876019239426 -0.6658537983894348 -0.12769043445587158
-0.06597241759300232 -0.6633787751197815 -0.13250122964382172
-0.08483663201332092 -0.6551316976547241 -0.13805672526359558
-0.0764741599559784 -0.6598017811775208 -0.12977419793605804
-0.08356160670518875 -0.6636870503425598 -0.12595270574092865
-0.09051621705293655 -0.6535525321960449 -0.13282661139965057
-0.06391707807779312 -0.668694794178009 -0.1207117885351181
-0.07294217497110367 -0.6703588366508484 -0.12072338163852692
-0.05430792272090912 -0.6690875291824341 -0.123557448387146
-0.049795761704444885 -0.6743523478507996 -0.11580022424459457
-0.04692709445953369 -0.638604462146759 -0.14529748260974884
-0.06137815862894058 -0.6739876866340637 -0.14309757947921753
-0.07467468082904816 -0.6657883524894714 -0.14547759294509888
-0.0902925655245781 -0.6631302237510681 -0.15133272111415863
-0.05815252661705017 -0.6691440343856812 -0.13734588027000427
-0.08431491255760193 -0.6711200475692749 -0.14955617487430573
-0.08237441629171371 -0.6601672172546387 -0.14502736926078796
-0.09319373965263367 -0.6752253770828247 -0.14507102966308594
-0.07493014633655548 -0.660483181476593 -0.13893699645996094
-0.07796122133731842 -0.6829864978790283 -0.1409013271331787
-0.06669680774211884 -0.666965901851654 -0.14098267257213593
-0.05636340007185936 -0.6876251697540283 -0.14067420363426208
-0.05173138529062271 -0.6790933012962341 -0.1397131085395813
-0.07443296164274216 -0.6765885949134827 -0.14702172577381134
-0.08325470238924026 -0.678480863571167 -0.1447741985321045
-0.06699126213788986 -0.6842153668403625 -0.1427312195301056
-0.13939426839351654 -0.642026424407959 -0.14806808531284332
-0.12562072277069092 -0.6629248857498169 -0.15768425166606903
-0.13587848842144012 -0.6606519222259521 -0.16045017540454865
-0.1405404955148697 -0.6568458676338196 -0.16628040373325348
-0.11967329680919647 -0.6654682755470276 -0.15290404856204987
-0.11845455318689346 -0.6591005921363831 -0.1347731351852417
-0.10392431914806366 -0.6694913506507874 -0.1310131847858429
-0.1258082538843155 -0.6556798815727234 -0.13826099038124084
-0.11521223187446594 -0.6665677428245544 -0.13549774885177612
-0.13880981504917145 -0.6554700136184692 -0.14482763409614563
-0.1334589719772339 -0.6630502939224243 -0.14685341715812683
-0.14359164237976074 -0.6597532033920288 -0.15634377300739288
-0.11995120346546173 -0.6483920812606812 -0.13902351260185242
-0.11695171892642975 -0.6696951389312744 -0.14293435215950012
-0.10468027740716934 -0.6733319759368896 -0.14035169780254364
-0.12527187168598175 -0.6643067598342896 -0.140081986784935
-0.109490767121315 -0.6614471673965454 -0.13147611916065216
-0.10038189589977264 -0.6602046489715576 -0.12898117303848267
-0.10453073680400848 -0.6528804898262024 -0.13358227908611298
-0.10358152538537979 -0.6514619588851929 -0.1522371768951416
-0.10341567546129227 -0.6486790776252747 -0.1430266797542572
-0.11176951229572296 -0.6487158536911011 -0.15434113144874573
-0.11476865410804749 -0.6447715759277344 -0.14717639982700348
-0.12743911147117615 -0.6419906616210938 -0.1463313102722168
-0.12195919454097748 -0.6431258320808411 -0.1526375561952591
-0.11200077831745148 -0.6474058032035828 -0.1394048035144806
-0.1317097693681717 -0.6546422243118286 -0.16573427617549896
-0.12804338335990906 -0.6478692293167114 -0.16397841274738312
-0.09806802868843079 -0.6654930710792542 -0.15327714383602142
-0.106847383081913 -0.6673536896705627 -0.15295469760894775
-0.10806869715452194 -0.6566487550735474 -0.15706412494182587
-0.11517183482646942 -0.6558368802070618 -0.15937106311321259
-0.09893249720335007 -0.6577348709106445 -0.15332461893558502
-0.11990106850862503 -0.6487863063812256 -0.15946806967258453
-0.09205513447523117 -0.6525301933288574 -0.1431075781583786
-0.1330423504114151 -0.6396303772926331 -0.1592532992362976
-0.1635303497314453 -0.6473562121391296 -0.1780509203672409
-0.14989836513996124 -0.6579029560089111 -0.16296438872814178
-0.16085554659366608 -0.6528990864753723 -0.17124637961387634
-0.15848296880722046 -0.6565865278244019 -0.16285954415798187
-0.15115709602832794 -0.6533114314079285 -0.1711820811033249
-0.18914970755577087 -0.6518573760986328 -0.1752573847770691
-0.18573030829429626 -0.6457441449165344 -0.18748973309993744
-0.170060932636261 -0.6438657641410828 -0.18204611539840698
-0.1801745593547821 -0.6270711421966553 -0.17035457491874695
-0.1881609708070755 -0.6267721652984619 -0.177382692694664
-0.1715996116399765 -0.6180954575538635 -0.15495403110980988
-0.1845133900642395 -0.6273559927940369 -0.16245082020759583
-0.17956452071666718 -0.6218708753585815 -0.1608058512210846
-0.1807859241962433 -0.6241850852966309 -0.1527167409658432
-0.1638924479484558 -0.6296442151069641 -0.1588025838136673
-0.16995559632778168 -0.6263096928596497 -0.15313802659511566
-0.16374710202217102 -0.6298799514770508 -0.1666812300682068
-0.17035126686096191 -0.624705970287323 -0.1627267301082611
-0.15182369947433472 -0.6358685493469238 -0.1560993641614914
-0.14486342668533325 -0.6378633975982666 -0.15257292985916138
-0.1615428626537323 -0.6364096999168396 -0.15396453440189362
-0.19486671686172485 -0.6308304667472839 -0.16920819878578186
-0.19683970510959625 -0.6386726498603821 -0.16740567982196808
-0.18845106661319733 -0.6357592344284058 -0.1637294441461563
-0.17852923274040222 -0.6516535878181458 -0.1748470962047577
-0.17018552124500275 -0.6509081125259399 -0.1751299500465393
-0.17822563648223877 -0.6458697319030762 -0.18441712856292725
-0.1811332106590271 -0.6375292539596558 -0.15817919373512268
-0.17326240241527557 -0.6503574252128601 -0.16066525876522064
-0.17980916798114777 -0.6452467441558838 -0.16024808585643768
-0.15117661654949188 -0.6498711705207825 -0.14963841438293457
-0.19389662146568298 -0.6470595002174377 -0.17029604315757751
-0.1851024478673935 -0.6495147347450256 -0.16801540553569794
-0.17468000948429108 -0.6536651253700256 -0.1674518883228302
-0.1738862544298172 -0.6422076225280762 -0.15624311566352844
-0.15828445553779602 -0.6455873847007751 -0.15163540840148926
-0.16373257339000702 -0.6538199782371521 -0.15795168280601501
-0.15108875930309296 -0.6569133400917053 -0.1538735330104828
-0.14284002780914307 -0.6353017687797546 -0.1603022813796997
-0.1383436620235443 -0.6425676345825195 -0.169095978140831
-0.14475026726722717 -0.6455615162849426 -0.17477233707904816
-0.17443127930164337 -0.6295012831687927 -0.17584039270877838
-0.15335433185100555 -0.6422972679138184 -0.17704027891159058
-0.15526922047138214 -0.6325711607933044 -0.1665739119052887
-0.16250020265579224 -0.6372125744819641 -0.17735707759857178
-0.1731014996767044 -0.6350618004798889 -0.18080608546733856
-0.22746342420578003 -0.6410956382751465 -0.18921643495559692
-0.2192455530166626 -0.6418786644935608 -0.1827263981103897
-0.19421526789665222 -0.6168567538261414 -0.21527323126792908
-0.20068031549453735 -0.6233132481575012 -0.21567314863204956
-0.20360742509365082 -0.6351790428161621 -0.19981521368026733
-0.21133050322532654 -0.6325466632843018 -0.20585718750953674
-0.1964873969554901 -0.6361029744148254 -0.19486716389656067
-0.18568052351474762 -0.6355878114700317 -0.18844518065452576
-0.19703266024589539 -0.6439093351364136 -0.19387266039848328
-0.21263661980628967 -0.6193416714668274 -0.18717904388904572
-0.22474506497383118 -0.6235305070877075 -0.1824943721294403
-0.22416174411773682 -0.6188037395477295 -0.19005022943019867
-0.19414307177066803 -0.6263569593429565 -0.1865972876548767
-0.2105129361152649 -0.6127275824546814 -0.19629046320915222
-0.2028312385082245 -0.6232607960700989 -0.18709154427051544
-0.19898027181625366 -0.622567355632782 -0.20391519367694855
-0.2024133801460266 -0.6158016324043274 -0.199785977602005
-0.20086362957954407 -0.6119298934936523 -0.21069306135177612
-0.1995886117219925 -0.6274357438087463 -0.174138143658638
-0.210682675242424 -0.6296601295471191 -0.1748814582824707
-0.2211809605360031 -0.6306750178337097 -0.1790674924850464
-0.21095161139965057 -0.624245285987854 -0.17999610304832458
-0.21449103951454163 -0.6378752589225769 -0.17616768181324005
-0.2056945264339447 -0.640930712223053 -0.172245055437088
-0.19309912621974945 -0.6487993001937866 -0.18773147463798523
-0.20280593633651733 -0.6485193371772766 -0.1899062544107437
-0.19846682250499725 -0.6522340774536133 -0.1823457032442093
-0.22778305411338806 -0.6257590651512146 -0.2048114389181137
-0.2059916853904724 -0.6104673743247986 -0.20493659377098083
-0.21753643453121185 -0.6137945652008057 -0.20038165152072906
-0.23336558043956757 -0.6402409672737122 -0.19834671914577484
-0.20636050403118134 -0.614273726940155 -0.21627922356128693
-0.20568768680095673 -0.6423957943916321 -0.19614659249782562
-0.22101445496082306 -0.6327658295631409 -0.20428478717803955
-0.21290461719036102 -0.6123798489570618 -0.21095018088817596
-0.2170119285583496 -0.6231082677841187 -0.20954371988773346
-0.22762379050254822 -0.6372865438461304 -0.20388461649417877
-0.21725164353847504 -0.6435421109199524 -0.1901860237121582
-0.22210818529129028 -0.6408570408821106 -0.19730791449546814
-0.2101275771856308 -0.626944363117218 -0.2118401676416397
-0.2357296496629715 -0.6176871657371521 -0.19228395819664001
-0.24743713438510895 -0.614102840423584 -0.18792179226875305
-0.236776664853096 -0.6284233331680298 -0.18345783650875092
-0.253379762172699 -0.629253625869751 -0.1824587732553482
-0.260702908039093 -0.6258002519607544 -0.18241897225379944
-0.25504040718078613 -0.6246686577796936 -0.1739932745695114
-0.25862452387809753 -0.6300718784332275 -0.18876485526561737
-0.24793501198291779 -0.6362325549125671 -0.19010217487812042
-0.25783252716064453 -0.6148991584777832 -0.19688090682029724
-0.27967968583106995 -0.6215851306915283 -0.20318257808685303
-0.27966147661209106 -0.6138526201248169 -0.20696155726909637
-0.2713577449321747 -0.6172288656234741 -0.20081356167793274
-0.24141058325767517 -0.6163379549980164 -0.19815059006214142
-0.25384849309921265 -0.6087458729743958 -0.18771471083164215
-0.24910055100917816 -0.6159759759902954 -0.2046561986207962
-0.26207616925239563 -0.6168613433837891 -0.1865079402923584
-0.26293155550956726 -0.6147556900978088 -0.1790873259305954
-0.2661818563938141 -0.6237102150917053 -0.19159987568855286
-0.2728250026702881 -0.610748827457428 -0.21855202317237854
-0.2724337577819824 -0.6119601130485535 -0.20888489484786987
-0.26407498121261597 -0.6139203906059265 -0.20447386801242828
-0.2673669159412384 -0.630889356136322 -0.21947020292282104
-0.2595885396003723 -0.6310259103775024 -0.21683773398399353
-0.250156968832016 -0.6329511404037476 -0.21104657649993896
-0.24744923412799835 -0.6197969913482666 -0.21144309639930725
-0.24445389211177826 -0.6273321509361267 -0.21207204461097717
-0.27105802297592163 -0.6202306151390076 -0.2273557037115097
-0.27421483397483826 -0.6314249038696289 -0.2285214513540268
-0.2587031424045563 -0.6177447438240051 -0.17323152720928192
-0.2536427080631256 -0.6141771674156189 -0.18117666244506836
-0.2461523413658142 -0.6229775547981262 -0.18250977993011475
-0.2638137638568878 -0.6133197546005249 -0.21426741778850555
-0.2641325891017914 -0.6189180016517639 -0.22141073644161224
-0.25754642486572266 -0.6175329685211182 -0.21684221923351288
-0.23612257838249207 -0.6210582852363586 -0.2063157856464386
-0.2471335232257843 -0.6372350454330444 -0.2032719850540161
-0.24113145470619202 -0.6389848589897156 -0.19736719131469727
-0.26640555262565613 -0.6331534385681152 -0.20463255047798157
-0.2643941044807434 -0.6304541826248169 -0.19648247957229614
-0.2795152962207794 -0.6295493841171265 -0.20739781856536865
-0.27225854992866516 -0.6257298588752747 -0.20009289681911469
-0.25821805000305176 -0.6359775066375732 -0.20819994807243347
-0.27408286929130554 -0.6335399150848389 -0.21531929075717926
-0.2891182601451874 -0.605241596698761 -0.21904486417770386
-0.29982033371925354 -0.6022432446479797 -0.21736450493335724
-0.3223973214626312 -0.5973793864250183 -0.22243088483810425
-0.30643728375434875 -0.598739743232727 -0.22133088111877441
-0.29769742488861084 -0.5958389043807983 -0.2242838591337204
-0.29149582982063293 -0.5935418605804443 -0.22868801653385162
-0.2795805335044861 -0.6091940999031067 -0.21538309752941132
-0.28777506947517395 -0.6016156673431396 -0.22602039575576782
-0.3114973306655884 -0.5973802804946899 -0.22952914237976074
-0.3208700120449066 -0.5962099432945251 -0.23537805676460266
-0.28244513273239136 -0.6104931831359863 -0.2276478260755539
-0.30581972002983093 -0.6015406847000122 -0.23381711542606354
-0.2899462878704071 -0.6151695847511292 -0.2328682839870453
-0.2789638936519623 -0.6234018802642822 -0.230311781167984
-0.2935023009777069 -0.6057325601577759 -0.23170803487300873
-0.31654787063598633 -0.6050766110420227 -0.23953427374362946
-0.31084445118904114 -0.6107291579246521 -0.23824580013751984
-0.3142554461956024 -0.6154405474662781 -0.21650946140289307
-0.33107990026474 -0.6144339442253113 -0.21865729987621307
-0.32271885871887207 -0.6162339448928833 -0.21846139430999756
-0.3215938210487366 -0.6062430739402771 -0.21728993952274323
-0.31369689106941223 -0.6068175435066223 -0.21616189181804657
-0.32714149355888367 -0.6103085279464722 -0.24110649526119232
-0.3099031448364258 -0.622593879699707 -0.22585110366344452
-0.3012617230415344 -0.6240166425704956 -0.22573532164096832
-0.29354459047317505 -0.6266195774078369 -0.22419728338718414
-0.2993512451648712 -0.6226596832275391 -0.21565745770931244
-0.32053977251052856 -0.6211044788360596 -0.2242126613855362
-0.32297223806381226 -0.6172754764556885 -0.23264537751674652
-0.2927386462688446 -0.6274436712265015 -0.2161399871110916
-0.2952027916908264 -0.6220661997795105 -0.23202046751976013
-0.28325051069259644 -0.6328232884407043 -0.2268628478050232
-0.284099817276001 -0.6309446692466736 -0.21407297253608704
-0.28021571040153503 -0.6350677013397217 -0.23371271789073944
-0.28993669152259827 -0.6227279305458069 -0.20880809426307678
-0.32908546924591064 -0.6207504868507385 -0.22357478737831116
-0.31186535954475403 -0.6188902258872986 -0.23209936916828156
-0.3030269742012024 -0.6199454665184021 -0.23299995064735413
-0.28924641013145447 -0.6148238778114319 -0.2105519324541092
-0.30167219042778015 -0.6129328012466431 -0.21302269399166107
-0.35190823674201965 -0.5650436282157898 -0.2333880066871643
-0.3519129753112793 -0.5856465101242065 -0.22616708278656006
-0.34215429425239563 -0.5948303937911987 -0.22373774647712708
-0.35190701484680176 -0.5766710042953491 -0.23088957369327545
-0.3650243282318115 -0.5782621502876282 -0.24692918360233307
-0.3583245277404785 -0.5859450697898865 -0.2491552233695984
-0.36779889464378357 -0.5926125049591064 -0.25325658917427063
-0.3461979925632477 -0.5884298086166382 -0.2449369877576828
-0.35998278856277466 -0.5942160487174988 -0.2506084144115448
-0.34611380100250244 -0.5842600464820862 -0.23350928723812103
-0.3385410010814667 -0.5890731811523438 -0.23425443470478058
-0.33157068490982056 -0.5920460224151611 -0.23071889579296112
-0.3765871822834015 -0.5951427221298218 -0.25531405210494995
-0.3634457290172577 -0.599300742149353 -0.22737134993076324
-0.3682052195072174 -0.5877559185028076 -0.22322189807891846
-0.3409669101238251 -0.6092807054519653 -0.22591526806354523
-0.34767213463783264 -0.6047850847244263 -0.22725436091423035
-0.33586591482162476 -0.6024519205093384 -0.22074192762374878
-0.35540100932121277 -0.6025299429893494 -0.22898618876934052
-0.362294465303421 -0.5808169841766357 -0.2236592173576355
-0.3345811367034912 -0.6062484383583069 -0.2446272075176239
-0.38073644042015076 -0.5949609875679016 -0.23298846185207367
-0.3776068389415741 -0.599482536315918 -0.2485823631286621
-0.37655016779899597 -0.6000266671180725 -0.2391321212053299
-0.33972668647766113 -0.6113477945327759 -0.23869259655475616
-0.36431753635406494 -0.6026533246040344 -0.23930321633815765
-0.35482996702194214 -0.5747388005256653 -0.24451330304145813
-0.3568800687789917 -0.6057488918304443 -0.23972675204277039
-0.35085317492485046 -0.5821366310119629 -0.2443486601114273
-0.3722976744174957 -0.598308801651001 -0.2310279756784439
-0.34122028946876526 -0.5945106148719788 -0.24923175573349
-0.35461318492889404 -0.6024481058120728 -0.24731305241584778
-0.33327823877334595 -0.6143708825111389 -0.23476861417293549
-0.36771780252456665 -0.6003110408782959 -0.24637950956821442
-0.3349693715572357 -0.5954465270042419 -0.24277850985527039
-0.3459413945674896 -0.6023373603820801 -0.24909362196922302
-0.3708176612854004 -0.5800008773803711 -0.2254975140094757
-0.3507780432701111 -0.5494417548179626 -0.2181185483932495
-0.3535231053829193 -0.5548030138015747 -0.20798389613628387
-0.4045223593711853 -0.5611953139305115 -0.24068573117256165
-0.3918722867965698 -0.5642493963241577 -0.2381860911846161
-0.4105120003223419 -0.5567077994346619 -0.22704647481441498
-0.3545722961425781 -0.5628523826599121 -0.22264598309993744
-0.3623354136943817 -0.5417106747627258 -0.23182381689548492
-0.3732282221317291 -0.5494430661201477 -0.23943379521369934
-0.386748343706131 -0.5504642724990845 -0.24165233969688416
-0.39792847633361816 -0.5524652600288391 -0.23882852494716644
-0.38716912269592285 -0.5600309371948242 -0.24386900663375854
-0.40653952956199646 -0.5465882420539856 -0.24155807495117188
-0.3553062379360199 -0.5533145070075989 -0.23501084744930267
-0.36291953921318054 -0.5532429814338684 -0.2420596331357956
-0.37864401936531067 -0.549997091293335 -0.2337103933095932
-0.35504961013793945 -0.5376454591751099 -0.2264261394739151
-0.35114583373069763 -0.5472014546394348 -0.22521941363811493
-0.35946983098983765 -0.5546562671661377 -0.21522867679595947
-0.36518874764442444 -0.5534389615058899 -0.20417486131191254
-0.3727453947067261 -0.5505655407905579 -0.22137033939361572
-0.3791980743408203 -0.5790190696716309 -0.2706338167190552
-0.3827786445617676 -0.5825483798980713 -0.27731645107269287
-0.3764522075653076 -0.5851743221282959 -0.26310020685195923
-0.37255915999412537 -0.5744578242301941 -0.2442912459373474
-0.389504998922348 -0.5566574931144714 -0.2585478723049164
-0.393403559923172 -0.5493141412734985 -0.24794124066829681
-0.394309937953949 -0.567270040512085 -0.2692696154117584
-0.394386887550354 -0.5603047609329224 -0.2645608186721802
-0.3645797371864319 -0.5676282644271851 -0.2290068119764328
-0.3666275143623352 -0.5705239772796631 -0.2374727576971054
-0.36783915758132935 -0.55580073595047 -0.23269125819206238
-0.37111130356788635 -0.564990222454071 -0.24184885621070862
-0.3630228638648987 -0.5578665137290955 -0.22276349365711212
-0.3858083486557007 -0.5866870284080505 -0.23128460347652435
-0.38576674461364746 -0.5736652612686157 -0.23434720933437347
-0.3772026002407074 -0.5594134330749512 -0.24636390805244446
-0.3975038528442383 -0.5729624629020691 -0.2354840487241745
-0.4054054617881775 -0.5747054815292358 -0.23751357197761536
-0.3922136127948761 -0.5700035691261292 -0.27872657775878906
-0.3848615884780884 -0.5736164450645447 -0.2748469114303589
-0.3796682059764862 -0.5703009963035583 -0.2606208026409149
-0.3759760558605194 -0.5682108998298645 -0.2489079385995865
-0.38248637318611145 -0.5597068667411804 -0.2538384199142456
-0.39814287424087524 -0.5919936299324036 -0.25420308113098145
-0.39088067412376404 -0.5911470651626587 -0.2591376006603241
-0.4040871560573578 -0.5869385004043579 -0.2490127682685852
-0.3933377265930176 -0.5848010182380676 -0.23552252352237701
-0.3869228661060333 -0.5844457149505615 -0.2708977162837982
-0.3717863857746124 -0.586302638053894 -0.25661584734916687
-0.38702648878097534 -0.5973842144012451 -0.2451271414756775
-0.3710511326789856 -0.5795592665672302 -0.2526886463165283
-0.3720467984676361 -0.5495724081993103 -0.22948092222213745
-0.37618353962898254 -0.5773721933364868 -0.2603689134120941
-0.38553792238235474 -0.5958173871040344 -0.253788024187088
-0.35580185055732727 -0.5609554648399353 -0.24010387063026428
-0.3774701952934265 -0.5779888033866882 -0.2318984568119049
-0.4068969488143921 -0.5646972060203552 -0.23002523183822632
-0.39785638451576233 -0.58604896068573 -0.26351994276046753
-0.3982298672199249 -0.5749382376670837 -0.2697656750679016
-0.3749490976333618 -0.552123486995697 -0.249507337808609
-0.3969852924346924 -0.59208083152771 -0.2456098347902298
-0.39013010263442993 -0.5435158610343933 -0.23933471739292145
-0.4020158052444458 -0.5507310628890991 -0.25339916348457336
-0.3965500295162201 -0.5418315529823303 -0.24405045807361603
-0.3990652561187744 -0.5553830862045288 -0.26016390323638916
-0.4056927561759949 -0.5811995267868042 -0.2420663982629776
-0.39652732014656067 -0.5837292075157166 -0.27265051007270813
-0.38169631361961365 -0.5660566687583923 -0.24324046075344086
-0.4343213140964508 -0.5775890350341797 -0.286909818649292
-0.44145938754081726 -0.581745982170105 -0.280804842710495
-0.433485209941864 -0.5335465669631958 -0.2604677081108093
-0.4383549094200134 -0.5418269038200378 -0.2630312442779541
-0.4266747534275055 -0.5441271066665649 -0.27192801237106323
-0.4239952564239502 -0.5444550514221191 -0.26386499404907227
-0.4413568675518036 -0.5543457865715027 -0.24036385118961334
-0.44659528136253357 -0.5603746771812439 -0.2431764304637909
-0.4469436705112457 -0.558592677116394 -0.2577265202999115
-0.43592822551727295 -0.553238570690155 -0.24684001505374908
-0.44037124514579773 -0.554747462272644 -0.25464826822280884
-0.4498997628688812 -0.5785663723945618 -0.27341946959495544
-0.42087456583976746 -0.5735847353935242 -0.24004866182804108
-0.4283885657787323 -0.5757191777229309 -0.24442751705646515
-0.43709275126457214 -0.5780949592590332 -0.24634584784507751
-0.4335382878780365 -0.5488602519035339 -0.258889377117157
-0.43374568223953247 -0.5597042441368103 -0.23615387082099915
-0.4272765815258026 -0.5536714792251587 -0.2512223720550537
-0.42791104316711426 -0.5635802745819092 -0.22959530353546143
-0.4188322424888611 -0.5608775615692139 -0.24067312479019165
-0.4178977310657501 -0.5569379329681396 -0.23118890821933746
-0.42944231629371643 -0.5563251972198486 -0.24248579144477844
-0.41379019618034363 -0.5525516271591187 -0.2481173723936081
-0.4222097396850586 -0.5513251423835754 -0.25643736124038696
-0.42739248275756836 -0.5672934651374817 -0.23704946041107178
-0.43400341272354126 -0.5713981986045837 -0.2400667518377304
-0.42378944158554077 -0.5675044655799866 -0.22447308897972107
-0.42254772782325745 -0.5524951219558716 -0.27274489402770996
-0.4151466488838196 -0.5584237575531006 -0.2593221366405487
-0.42154037952423096 -0.5691654682159424 -0.2323356717824936
-0.4470701515674591 -0.5806307792663574 -0.24051494896411896
-0.43749284744262695 -0.5623286366462708 -0.22899679839611053
-0.44182679057121277 -0.5697489380836487 -0.2362864762544632
-0.44429871439933777 -0.5630650520324707 -0.2337512969970703
-0.43433627486228943 -0.5377863049507141 -0.27022141218185425
-0.4459439516067505 -0.5627954602241516 -0.2679426670074463
-0.441237211227417 -0.5637041926383972 -0.27494409680366516
-0.43648234009742737 -0.5524188280105591 -0.27511152625083923
-0.4086415767669678 -0.558506965637207 -0.25388598442077637
-0.4070335030555725 -0.5736186504364014 -0.2637999951839447
-0.42115214467048645 -0.5627098083496094 -0.2726658880710602
-0.4103616774082184 -0.5666969418525696 -0.2612258791923523
-0.4207152724266052 -0.5701715350151062 -0.26903092861175537
-0.42547866702079773 -0.5683512091636658 -0.27931883931159973
-0.43934696912765503 -0.5513356328010559 -0.26763761043548584
-0.4142354130744934 -0.5646792650222778 -0.22541522979736328
-0.41169098019599915 -0.5704730749130249 -0.2320055216550827
-0.41522911190986633 -0.5806282162666321 -0.24140962958335876
-0.41292938590049744 -0.5825114846229553 -0.2505721151828766
-0.44111040234565735 -0.5819037556648254 -0.27282586693763733
-0.44894590973854065 -0.5828651189804077 -0.2615754306316376
-0.43205201625823975 -0.5800092220306396 -0.27794915437698364
-0.44846245646476746 -0.5771436095237732 -0.2518432140350342
-0.443447470664978 -0.5704432725906372 -0.2810397446155548
-0.42690280079841614 -0.5803557634353638 -0.27054911851882935
-0.43144530057907104 -0.5677413940429688 -0.28482693433761597
-0.41594141721725464 -0.5800211429595947 -0.2650442123413086
-0.4092264175415039 -0.581510603427887 -0.26023069024086
-0.4035559296607971 -0.5627502799034119 -0.26080629229545593
-0.4297911524772644 -0.5825943946838379 -0.25322163105010986
-0.425121009349823 -0.584648847579956 -0.2631346583366394
-0.4352656900882721 -0.5836134552955627 -0.25965240597724915
-0.41920387744903564 -0.5830097794532776 -0.25808021426200867
-0.4496203660964966 -0.56904137134552 -0.26122522354125977
-0.4408462345600128 -0.5826966166496277 -0.2539379894733429
-0.43334999680519104 -0.5634019374847412 -0.2767740786075592
-0.43186846375465393 -0.5135805606842041 -0.2650623917579651
-0.43748578429222107 -0.48596620559692383 -0.26142561435699463
-0.4400997459888458 -0.47637584805488586 -0.2615462839603424
-0.4406561255455017 -0.50949627161026 -0.2624727189540863
-0.43520426750183105 -0.5011158585548401 -0.2656882107257843
-0.4342231750488281 -0.5087771415710449 -0.27145522832870483
-0.4397546947002411 -0.5141022205352783 -0.26893094182014465
-0.4380212128162384 -0.5187494158744812 -0.2611713707447052
-0.4464060068130493 -0.48815789818763733 -0.26270315051078796
-0.44258347153663635 -0.49679821729660034 -0.26065605878829956
-0.4475170075893402 -0.4780953526496887 -0.26447784900665283
-0.44094547629356384 -0.5243189930915833 -0.266795814037323
-0.43335407972335815 -0.5231707692146301 -0.26960352063179016
-0.4387221932411194 -0.49706804752349854 -0.2713049352169037
-0.4420114755630493 -0.4829232394695282 -0.268014520406723
-0.4427288770675659 -0.4669097065925598 -0.2618289887905121
-0.44862058758735657 -0.44679248332977295 -0.26448023319244385
-0.44596734642982483 -0.4641660451889038 -0.26816585659980774
-0.4463680386543274 -0.455332487821579 -0.26708510518074036
-0.444986492395401 -0.43877071142196655 -0.2655837833881378
0.13726037740707397 -0.6981574892997742 -0.16207030415534973
0.14481998980045319 -0.6898280382156372 -0.17204508185386658
0.13636814057826996 -0.6858074069023132 -0.16841359436511993
0.14384016394615173 -0.6834156513214111 -0.17872914671897888
0.13809379935264587 -0.6769112348556519 -0.1843397170305252
0.13349400460720062 -0.6986829042434692 -0.14943893253803253
0.14645244181156158 -0.6738203763961792 -0.19223813712596893
0.13469421863555908 -0.6887375116348267 -0.15977215766906738
0.13665905594825745 -0.6745288372039795 -0.19439329206943512
0.13718590140342712 -0.6799681782722473 -0.17560701072216034
0.14900444447994232 -0.6793596148490906 -0.18450292944908142
0.15111994743347168 -0.6849355101585388 -0.1765386164188385
0.15286065638065338 -0.6907813549041748 -0.1694779098033905
0.15444917976856232 -0.6780197620391846 -0.15517950057983398
0.14626482129096985 -0.6670714020729065 -0.1531374454498291
0.14913910627365112 -0.6956142783164978 -0.13895165920257568
0.14891348779201508 -0.6818782687187195 -0.14643709361553192
0.13981564342975616 -0.670024573802948 -0.16611704230308533
0.13680170476436615 -0.6836682558059692 -0.15288372337818146
0.1402822881937027 -0.6717411875724792 -0.15737678110599518
0.1368100792169571 -0.6784024238586426 -0.16495172679424286
0.13636662065982819 -0.6722649335861206 -0.17272523045539856
0.14743435382843018 -0.656598687171936 -0.17709816992282867
0.1464938521385193 -0.6644530296325684 -0.16774015128612518
0.15696492791175842 -0.6838371157646179 -0.1710951328277588
0.15596507489681244 -0.6936413645744324 -0.16218441724777222
0.14255931973457336 -0.6733230352401733 -0.14979957044124603
0.14547084271907806 -0.6883779764175415 -0.14156688749790192
0.13889853656291962 -0.7017383575439453 -0.13494691252708435
0.1377941519021988 -0.6937944293022156 -0.14279210567474365
