79.09378051757812 63.32051467895508 47.228187561035156
19.907262802124023 66.44511413574219 102.53070831298828
66.34677124023438 48.95834732055664 53.189369201660156
34.74957275390625 38.366371154785156 56.66084671020508
49.11576843261719 41.47821044921875 31.81056785583496
29.820449829101562 40.77200698852539 73.1628646850586
19.42478370666504 66.68122863769531 101.95401000976562
49.7414436340332 41.365943908691406 31.350648880004883
36.710933685302734 39.79500961303711 52.33072280883789
64.17826843261719 45.327144622802734 50.507389068603516
40.2896614074707 58.28184127807617 52.89738464355469
80.83098602294922 61.643760681152344 34.32548141479492
44.475860595703125 52.830204010009766 49.397254943847656
31.464935302734375 62.81509017944336 70.37425231933594
32.226722717285156 39.22535705566406 58.44578552246094
54.423397064208984 43.55018997192383 40.321502685546875
30.67576026916504 41.447086334228516 63.29597091674805
40.00031280517578 58.28289794921875 53.611812591552734
56.13291931152344 39.8733024597168 39.7162971496582
67.42105102539062 77.2212905883789 60.848121643066406
34.76136016845703 28.199186325073242 45.53590393066406
44.15803146362305 30.564395904541016 11.682169914245605
40.365692138671875 37.94440460205078 40.86458206176758
29.853586196899414 61.917877197265625 71.46094512939453
74.7855224609375 65.82726287841797 49.33897018432617
34.24718475341797 38.02573776245117 55.03914260864258
82.68592071533203 59.10126495361328 32.322792053222656
62.98107147216797 48.06184005737305 51.67437744140625
27.364227294921875 43.711944580078125 86.26022338867188
64.4695053100586 45.44136428833008 51.539119720458984
49.17738342285156 32.17903137207031 3.561171531677246
37.283145904541016 36.106502532958984 45.468040466308594
19.868555068969727 66.53739166259766 112.5944595336914
59.69548034667969 44.61000061035156 40.74333190917969
32.31601333618164 61.35211944580078 64.7730484008789
21.250947952270508 67.13862609863281 118.9772720336914
47.33704376220703 52.420692443847656 48.125797271728516
33.02668380737305 39.73470687866211 57.177040100097656
42.859432220458984 34.44567108154297 41.414154052734375
54.16780471801758 43.282630920410156 38.3657112121582
76.22372436523438 59.63957214355469 38.787845611572266
52.904258728027344 44.411231994628906 40.499176025390625
62.15499496459961 45.68567657470703 48.92450714111328
10.270493507385254 35.948177337646484 49.04701232910156
33.138858795166016 39.90830612182617 55.76084899902344
24.37851333618164 50.61824417114258 52.77940368652344
68.76798248291016 71.9059066772461 55.47842788696289
22.548507690429688 66.81983184814453 83.68893432617188
71.4093017578125 56.78469467163086 39.94827651977539
34.778236389160156 37.9473762512207 52.5863037109375
73.07451629638672 76.07164764404297 66.62039947509766
45.50934600830078 31.715288162231445 -2.356550693511963
22.330114364624023 66.08735656738281 91.4915771484375
40.40483474731445 58.252201080322266 55.8243293762207
29.289447784423828 40.93020248413086 69.68492126464844
25.966062545776367 64.64311218261719 77.78460693359375
32.74485778808594 30.410903930664062 48.76106262207031
29.294849395751953 42.03825759887695 80.49127197265625
36.072471618652344 32.68782424926758 43.88946533203125
62.49748611450195 47.683082580566406 49.619972229003906
45.11076736450195 34.452789306640625 34.50739669799805
22.070783615112305 67.34746551513672 83.982421875
27.457889556884766 43.70714569091797 88.06501770019531
30.553634643554688 41.383872985839844 65.46997833251953
27.098478317260742 41.90450668334961 76.98918914794922
53.16300964355469 46.81536865234375 42.53061294555664
43.72550582885742 31.40115737915039 18.03380584716797
46.99675750732422 35.51298141479492 16.654645919799805
70.05863189697266 70.5357437133789 54.12211990356445
58.70245361328125 45.63666915893555 41.44649124145508
13.534440040588379 60.87022399902344 53.911460876464844
56.85648727416992 43.21443176269531 37.003883361816406
49.63349533081055 36.76139831542969 29.723697662353516
48.46094512939453 49.090614318847656 45.85637664794922
30.370019912719727 62.80668258666992 72.70793151855469
9.600860595703125 62.994869232177734 51.91343307495117
67.60529327392578 53.75254440307617 39.79355239868164
68.8915786743164 54.315120697021484 39.96548843383789
36.5262451171875 61.782371520996094 49.22239303588867
52.65271759033203 47.62501525878906 41.68556594848633
23.73689079284668 64.29717254638672 84.1750717163086
34.82475662231445 38.11946105957031 55.429283142089844
35.89303207397461 61.2237548828125 60.517845153808594
25.75181007385254 63.303863525390625 79.28890991210938
23.185001373291016 65.74241638183594 86.36715698242188
28.188011169433594 62.518943786621094 74.99844360351562
19.643800735473633 66.08927917480469 106.9909439086914
29.752159118652344 42.89491653442383 74.85238647460938
65.39884185791016 50.84101104736328 39.627891540527344
64.57054138183594 50.293365478515625 39.64097213745117
34.594154357910156 29.431194305419922 46.10673141479492
60.260616302490234 46.398475646972656 40.124366760253906
19.45111846923828 66.59770965576172 109.68921661376953
48.93562316894531 49.31214141845703 45.49223709106445
42.414730072021484 37.336509704589844 41.564022064208984
64.42723846435547 48.56368637084961 52.14744186401367
20.314607620239258 65.81800842285156 99.0218505859375
38.512935638427734 30.28942108154297 41.40414810180664
79.04357147216797 63.01380157470703 46.94396209716797
38.007347106933594 58.639644622802734 55.6087532043457
10.275768280029297 36.00458526611328 49.00456619262695
33.902034759521484 64.39064025878906 47.2453498840332
48.03224182128906 33.678016662597656 30.630123138427734
56.45133590698242 42.917911529541016 41.672637939453125
42.560516357421875 37.860904693603516 10.575799942016602
28.673606872558594 34.47915267944336 46.748722076416016
37.506980895996094 30.3400821685791 43.047035217285156
51.59023666381836 33.24441146850586 34.1713752746582
37.70735549926758 36.83722686767578 48.55976867675781
37.109283447265625 32.77572250366211 40.979557037353516
29.18092918395996 40.842594146728516 76.9371566772461
42.787540435791016 35.585731506347656 21.227325439453125
64.5652847290039 47.587982177734375 54.2749137878418
39.530242919921875 58.74446487426758 52.32236862182617
47.34383773803711 50.47850036621094 46.031185150146484
54.34376525878906 45.248905181884766 38.69044494628906
37.32555389404297 36.64731979370117 46.24406051635742
54.03348159790039 29.871917724609375 33.946685791015625
28.07098388671875 41.56206130981445 83.91161346435547
25.314228057861328 37.423255920410156 45.638389587402344
38.3621826171875 29.608320236206055 43.81191635131836
39.59381103515625 35.806156158447266 44.85911178588867
51.3019905090332 34.62201690673828 29.228870391845703
62.9277458190918 46.23094940185547 51.622257232666016
24.425188064575195 63.782405853271484 82.26630401611328
53.945648193359375 40.412845611572266 30.793432235717773
23.24098014831543 65.61878204345703 79.84181213378906
24.472253799438477 65.09902954101562 86.49944305419922
50.16374588012695 47.25130081176758 43.65455627441406
46.05544662475586 54.48748016357422 49.50967025756836
29.5921573638916 33.631690979003906 47.19278335571289
31.74930763244629 40.65311050415039 68.22997283935547
36.647972106933594 38.05115509033203 46.04508972167969
72.87153625488281 58.228904724121094 40.75077819824219
30.541872024536133 44.57765197753906 51.269805908203125
39.598350524902344 59.00117874145508 56.74013137817383
50.50070571899414 39.6495246887207 21.517398834228516
73.00416564941406 40.87126159667969 32.32863998413086
54.02511215209961 39.388771057128906 38.51869201660156
63.38399124145508 42.64664077758789 48.98509979248047
68.0610122680664 77.86933135986328 61.346614837646484
11.621294975280762 61.78330612182617 54.09219741821289
40.22528839111328 34.471580505371094 38.081172943115234
48.245601654052734 51.452938079833984 45.6270751953125
21.58524513244629 66.8773422241211 120.25233459472656
63.06544876098633 45.160682678222656 46.98320007324219
55.80638885498047 44.19091033935547 35.1639404296875
19.91423225402832 66.89004516601562 110.348388671875
22.538150787353516 65.1544189453125 86.37387084960938
69.60576629638672 56.58839797973633 38.69797897338867
32.92427444458008 40.54814529418945 63.5684814453125
16.85401153564453 41.7071418762207 44.230648040771484
25.963727951049805 65.23369598388672 79.91958618164062
38.87010955810547 58.03636932373047 57.2086181640625
61.56755828857422 46.99213409423828 40.976470947265625
20.861581802368164 65.2894287109375 92.68668365478516
64.5693588256836 47.933372497558594 50.19982147216797
34.531803131103516 41.006221771240234 54.64591979980469
51.6482048034668 48.875526428222656 43.223873138427734
30.53847885131836 40.493370056152344 71.998291015625
28.723217010498047 41.359737396240234 72.8958740234375
53.81862258911133 38.565982818603516 37.08411407470703
34.101261138916016 27.776081085205078 45.498023986816406
21.157548904418945 66.24293518066406 95.56488037109375
24.770532608032227 45.20647048950195 87.90750885009766
37.06501770019531 36.668880462646484 48.50537872314453
49.07565689086914 31.188215255737305 6.533633232116699
49.68321228027344 50.21296310424805 46.53704071044922
28.654067993164062 40.84016418457031 70.78996276855469
32.580135345458984 26.563499450683594 44.14779281616211
64.87848663330078 48.87578582763672 55.428863525390625
64.5640640258789 47.7007942199707 50.14662170410156
52.532981872558594 47.52381896972656 43.466854095458984
18.70011329650879 40.83619689941406 44.69691848754883
31.88608169555664 41.573177337646484 63.20656967163086
63.164161682128906 45.290985107421875 45.72869873046875
36.155025482177734 30.5355167388916 47.61389923095703
62.701786041259766 42.33514404296875 46.967742919921875
29.65166664123535 41.740055084228516 78.48030090332031
24.170764923095703 64.03569793701172 84.17896270751953
68.04967498779297 72.56938934326172 56.16214370727539
46.503231048583984 30.510984420776367 16.909521102905273
32.91474914550781 62.74201583862305 67.06953430175781
49.358089447021484 39.772850036621094 11.815685272216797
26.970291137695312 42.147979736328125 79.67267608642578
32.164485931396484 61.09260559082031 67.6280288696289
32.91017150878906 41.690040588378906 62.039066314697266
11.228033065795898 61.786624908447266 54.27243423461914
52.427703857421875 31.341482162475586 30.805261611938477
30.986709594726562 67.32512664794922 49.164024353027344
20.183027267456055 66.67964935302734 115.01673126220703
19.78624725341797 66.67870330810547 112.57462310791016
47.0254020690918 30.416217803955078 26.1217041015625
30.074792861938477 40.481571197509766 65.241943359375
34.479461669921875 39.903995513916016 54.031986236572266
37.551204681396484 32.97242736816406 41.878963470458984
47.12518310546875 35.247535705566406 30.090869903564453
34.954994201660156 60.194759368896484 63.45005798339844
44.501773834228516 55.991703033447266 51.25643539428711
38.904911041259766 33.71180725097656 39.054935455322266
41.11870193481445 37.5604133605957 43.32863235473633
41.61587142944336 33.51346969604492 40.570533752441406
37.16537857055664 32.85045623779297 43.20663833618164
43.17792510986328 32.44685363769531 14.329506874084473
23.475318908691406 38.56496047973633 45.10723114013672
28.772165298461914 41.16814422607422 71.65227508544922
53.35013961791992 46.86252975463867 42.47149658203125
23.522449493408203 65.55992126464844 86.7730941772461
62.34852600097656 44.312870025634766 44.48881530761719
50.96429443359375 49.56024169921875 44.08646011352539
36.75206756591797 36.84663391113281 46.318878173828125
35.57376480102539 61.16178894042969 60.51057815551758
47.74384689331055 33.63932418823242 30.16785430908203
55.44285583496094 32.64883041381836 36.932926177978516
30.11419677734375 61.75266647338867 69.54116821289062
61.490936279296875 45.32476043701172 46.21959686279297
34.190269470214844 61.72254180908203 62.23351287841797
40.86527633666992 56.546512603759766 52.68133544921875
10.765806198120117 36.448707580566406 48.85540771484375
35.05154037475586 37.810874938964844 54.206146240234375
44.33235549926758 32.404014587402344 10.838183403015137
25.555482864379883 63.79030227661133 82.407470703125
21.00973892211914 53.953487396240234 52.79343795776367
56.62626266479492 39.53898620605469 38.4778938293457
21.44550323486328 64.73758697509766 93.62474822998047
45.578060150146484 37.03301239013672 28.470252990722656
65.46289825439453 48.8249397277832 54.44414138793945
40.83250045776367 56.06441116333008 53.7935676574707
20.29721450805664 66.58104705810547 111.94004821777344
65.89861297607422 75.5709228515625 59.14567565917969
59.4002571105957 46.58122253417969 42.695701599121094
40.05410385131836 30.926437377929688 42.18112564086914
37.90932846069336 60.11998748779297 57.48975372314453
62.82879638671875 47.55580520629883 51.67783737182617
51.12123489379883 35.33087921142578 8.845438003540039
29.83633041381836 42.098548889160156 75.5570068359375
24.289703369140625 64.2961196899414 86.40170288085938
57.271270751953125 45.7811164855957 39.180355072021484
31.09111785888672 40.88577651977539 70.99210357666016
29.88898277282715 40.45899200439453 70.72936248779297
15.436623573303223 41.86278533935547 42.89414596557617
33.75836944580078 62.0717887878418 63.265052795410156
21.992813110351562 67.41146850585938 84.00513458251953
56.28917694091797 31.593050003051758 33.732486724853516
75.53105163574219 65.11886596679688 48.62818145751953
30.910179138183594 28.5875244140625 51.02031707763672
18.009246826171875 56.91387176513672 53.08378219604492
60.22794723510742 45.22661209106445 41.87320327758789
66.95051574707031 52.509944915771484 39.769893646240234
21.243284225463867 64.77035522460938 92.07960510253906
64.26551818847656 48.51736831665039 50.262516021728516
27.005908966064453 64.86579895019531 77.29508972167969
28.59649658203125 40.59683609008789 72.0423812866211
32.39999008178711 29.82331657409668 47.91536331176758
22.801944732666016 38.96271514892578 44.930580139160156
31.973434448242188 40.28376388549805 67.31697845458984
64.55901336669922 47.06414794921875 53.65034484863281
23.59187126159668 65.32311248779297 82.81525421142578
22.017189025878906 52.86404037475586 52.91374969482422
52.74471664428711 32.02685546875 35.55008316040039
30.726333618164062 42.24348831176758 71.1838150024414
21.536108016967773 66.22240447998047 94.09768676757812
35.79094314575195 60.437530517578125 61.61772155761719
39.60891342163086 33.85598373413086 42.30584716796875
54.366180419921875 38.61305236816406 37.5220947265625
34.77668762207031 27.771286010742188 49.60554122924805
81.22016143798828 64.43998718261719 49.28923797607422
36.010807037353516 32.83380889892578 43.926429748535156
10.096810340881348 60.708438873291016 59.236968994140625
29.241079330444336 42.896114349365234 80.81827545166016
35.36994171142578 60.20656967163086 60.68281936645508
36.36805725097656 32.9934196472168 44.32918930053711
37.882972717285156 37.72136688232422 46.800872802734375
64.92687225341797 48.8345947265625 54.68687057495117
26.150983810424805 63.41356658935547 80.59349822998047
39.1223258972168 36.78878402709961 47.802608489990234
58.5633659362793 45.54609680175781 41.90448760986328
29.496442794799805 62.43486022949219 70.32707977294922
32.63380813598633 42.33681869506836 50.811622619628906
30.025447845458984 40.27716827392578 66.46710968017578
34.36742401123047 26.99736213684082 49.64438247680664
64.3649673461914 46.136260986328125 51.406612396240234
12.669853210449219 68.96196746826172 108.40814971923828
29.742292404174805 43.07467269897461 72.63947296142578
19.357267379760742 66.33714294433594 106.60595703125
63.86127471923828 48.83740234375 39.31593322753906
10.011588096618652 60.777931213378906 59.11395263671875
68.55975341796875 72.09565734863281 55.64991760253906
20.365581512451172 66.71853637695312 116.87154388427734
33.20851135253906 27.468494415283203 44.45847702026367
39.172725677490234 58.174713134765625 57.5447883605957
60.34089279174805 42.74413299560547 44.66324996948242
37.0091438293457 39.0988655090332 46.754947662353516
18.60342025756836 66.03228759765625 104.01825714111328
34.171531677246094 61.165321350097656 62.22071838378906
38.59222412109375 38.800621032714844 48.40510177612305
35.708274841308594 59.17902374267578 59.20349884033203
43.659786224365234 55.328887939453125 52.54713821411133
51.7333984375 33.038536071777344 19.46194076538086
27.985387802124023 42.62297058105469 83.8736801147461
33.568729400634766 27.16248893737793 49.34391403198242
29.80399513244629 42.894187927246094 75.11317443847656
38.299415588378906 60.03728485107422 57.777584075927734
51.35615921020508 33.9068603515625 33.335880279541016
40.32590866088867 37.219268798828125 39.15631103515625
28.076017379760742 43.376853942871094 81.32916259765625
39.919254302978516 58.441410064697266 54.40410614013672
28.175336837768555 63.655982971191406 72.81797790527344
32.274147033691406 40.31480407714844 66.92574310302734
40.831321716308594 57.8546028137207 53.5085334777832
69.42565155029297 55.48838424682617 39.65725326538086
30.670608520507812 40.97502899169922 63.39653396606445
42.33418273925781 33.00550079345703 19.1948184967041
64.70601654052734 51.05537414550781 39.32395935058594
55.610599517822266 42.99471664428711 40.76369857788086
29.39508628845215 42.90610122680664 70.96761322021484
28.85358428955078 43.41925048828125 80.60778045654297
49.31585693359375 36.03632736206055 33.63179016113281
36.517311096191406 37.040924072265625 46.406280517578125
20.935565948486328 65.49931335449219 92.22663879394531
80.8630142211914 64.38597106933594 48.989925384521484
74.68708801269531 59.78593444824219 42.459564208984375
22.77991485595703 64.90672302246094 89.35610961914062
17.028440475463867 40.88943862915039 44.86408615112305
31.170536041259766 40.66575241088867 64.07337188720703
58.829803466796875 41.6219482421875 41.487422943115234
38.26300811767578 32.69703674316406 42.51353073120117
39.98271179199219 58.2935791015625 56.41080856323242
32.274723052978516 62.42591857910156 65.48919677734375
50.48084259033203 42.210845947265625 32.213863372802734
37.60527420043945 31.431896209716797 45.990089416503906
34.13029479980469 38.98753356933594 51.77471923828125
27.324974060058594 41.36455154418945 84.21633911132812
47.63682556152344 35.995296478271484 35.41789627075195
27.847841262817383 43.4026985168457 87.52567291259766
51.754310607910156 30.909442901611328 30.80607795715332
17.081884384155273 41.030494689941406 44.793704986572266
45.524566650390625 39.74494934082031 6.656191349029541
36.052032470703125 39.172760009765625 53.809879302978516
24.473207473754883 64.66664123535156 86.42076110839844
52.536865234375 30.418319702148438 33.76069641113281
29.154111862182617 41.516395568847656 77.7017822265625
64.48528289794922 48.23467254638672 49.79880905151367
32.205665588378906 62.4929084777832 69.14566802978516
69.38182830810547 56.42953872680664 38.58325958251953
20.6037654876709 54.328399658203125 52.79185485839844
73.99150848388672 40.40983581542969 31.799116134643555
46.54218673706055 38.48120880126953 27.60638427734375
64.37960052490234 47.006492614746094 54.60597610473633
33.13941955566406 27.373947143554688 51.990074157714844
56.3374137878418 39.133201599121094 37.96574783325195
51.49248504638672 32.96555709838867 16.946285247802734
62.936161041259766 44.34029006958008 48.05930709838867
29.262941360473633 41.82899475097656 68.45596313476562
77.60565948486328 61.97996139526367 45.46996307373047
39.79862594604492 57.3055305480957 56.06508255004883
45.339454650878906 39.394676208496094 -1.1225175857543945
43.95052719116211 33.111812591552734 41.987205505371094
39.89678955078125 57.18009567260742 53.617733001708984
27.82880210876465 43.378326416015625 86.7111587524414
23.658422470092773 38.51698684692383 45.174072265625
48.73045349121094 39.41617202758789 6.637420654296875
10.551187515258789 69.97071838378906 113.63226318359375
8.136347770690918 33.88975143432617 49.513675689697266
80.87358093261719 66.0760498046875 49.7668342590332
67.59539794921875 44.23131561279297 35.596031188964844
13.306045532226562 68.7588882446289 108.0396499633789
45.39630889892578 40.319950103759766 22.047561645507812
34.072265625 40.1217155456543 55.636653900146484
23.352947235107422 65.50757598876953 89.18417358398438
53.89488220214844 29.52112579345703 35.1685905456543
44.990604400634766 29.813194274902344 5.472287654876709
19.46138572692871 66.50838470458984 107.79054260253906
31.063758850097656 28.779342651367188 49.49017333984375
32.303565979003906 30.13258934020996 49.01091003417969
63.392940521240234 45.98746109008789 45.880001068115234
74.50418090820312 59.127323150634766 42.05634689331055
84.0079574584961 56.152442932128906 36.11909866333008
39.68560791015625 37.334747314453125 43.45743942260742
47.033809661865234 33.380306243896484 29.31679916381836
32.35780715942383 41.23814392089844 66.93225860595703
34.15668487548828 60.268497467041016 63.480289459228516
77.48466491699219 63.79801559448242 47.23347091674805
53.972496032714844 44.13730239868164 38.74264907836914
19.4903507232666 66.14374542236328 105.21488952636719
79.31249237060547 63.08320236206055 47.32283020019531
13.195737838745117 61.070072174072266 54.010196685791016
65.76887512207031 51.28042221069336 38.90150833129883
58.36980438232422 30.503007888793945 37.15098571777344
79.34923553466797 63.4978141784668 47.58853530883789
47.363525390625 39.192176818847656 30.337284088134766
39.39432907104492 34.86131286621094 42.015846252441406
30.912221908569336 41.88001251220703 65.2952651977539
46.76465606689453 33.09858322143555 33.91166305541992
41.00929260253906 33.73471450805664 37.94563674926758
33.09452819824219 38.930782318115234 55.067222595214844
11.498849868774414 69.93962097167969 110.24942016601562
34.131473541259766 29.196409225463867 48.343563079833984
29.508169174194336 41.821075439453125 78.25016021728516
32.44694519042969 60.80786895751953 64.66573333740234
84.23014068603516 64.82561492919922 30.91702651977539
39.86225128173828 37.35944366455078 41.18736267089844
52.8511848449707 36.64198684692383 32.164791107177734
64.1447982788086 48.777889251708984 51.21807861328125
55.38192367553711 31.750219345092773 32.74412155151367
55.55874252319336 29.573867797851562 38.62660598754883
36.78664016723633 32.15106964111328 46.02027130126953
46.876956939697266 40.22865676879883 18.909168243408203
42.06388854980469 57.4175910949707 52.62445831298828
75.0322265625 59.93763732910156 42.74018478393555
49.3927116394043 51.22492599487305 46.13521957397461
20.579591751098633 65.43550872802734 93.3266830444336
37.50606155395508 36.204246520996094 46.978370666503906
19.381328582763672 66.22512817382812 106.78809356689453
56.05028533935547 45.319061279296875 36.53115463256836
50.714256286621094 37.89044189453125 11.438505172729492
40.44327163696289 36.38486862182617 43.37027359008789
17.445287704467773 67.3985366821289 103.6221923828125
23.567773818969727 65.72187805175781 87.99105072021484
25.8592586517334 63.903076171875 81.27288055419922
24.48836898803711 64.48394012451172 83.25968170166016
64.20085144042969 47.377471923828125 38.02526092529297
64.22564697265625 47.212154388427734 37.94325637817383
31.11635971069336 40.087677001953125 66.99317932128906
27.731788635253906 41.5426025390625 84.34223175048828
37.17438888549805 28.844661712646484 44.92012405395508
20.333358764648438 66.1546401977539 94.70098114013672
75.11982727050781 60.06623458862305 43.090457916259766
48.10406494140625 30.463773727416992 20.262407302856445
70.5839614868164 42.1736946105957 33.62733459472656
50.90460968017578 40.00291061401367 36.148033142089844
82.4888916015625 59.03750991821289 32.47162628173828
32.14358901977539 61.39069747924805 66.70877075195312
48.083892822265625 31.050378799438477 18.069875717163086
35.75495529174805 29.250349044799805 46.49392318725586
41.02885437011719 35.28855514526367 8.722305297851562
22.130949020385742 67.28010559082031 83.92212677001953
28.772743225097656 42.00093078613281 82.97825622558594
43.66840362548828 38.22416305541992 33.58249282836914
45.94855499267578 35.304931640625 29.162378311157227
22.244068145751953 39.22652816772461 44.714168548583984
31.03833770751953 40.49226379394531 70.30777740478516
47.38567352294922 35.117515563964844 -1.7452586889266968
33.186519622802734 39.40532302856445 55.52262496948242
66.03669738769531 46.928314208984375 51.26217269897461
65.1611328125 51.27574157714844 39.591712951660156
12.86681842803955 38.1085205078125 47.51666259765625
51.65222930908203 32.69434356689453 34.59917068481445
71.33133697509766 57.174015045166016 40.59229278564453
39.327720642089844 58.9270133972168 57.04543685913086
31.241943359375 42.018611907958984 69.69313049316406
70.12246704101562 55.838565826416016 40.2378044128418
33.804527282714844 41.073143005371094 55.180477142333984
24.79198455810547 64.40308380126953 83.38099670410156
25.826494216918945 44.230491638183594 87.57137298583984
38.42084503173828 37.038551330566406 49.024261474609375
47.936893463134766 32.90338897705078 31.95189666748047
72.46765899658203 41.199764251708984 32.61549758911133
33.396507263183594 28.5622501373291 51.01122283935547
27.34195899963379 41.51468276977539 78.5280990600586
31.58393669128418 40.676143646240234 67.19535827636719
33.24956512451172 60.56782913208008 63.45722579956055
32.07558822631836 26.04358673095703 43.97008514404297
30.00818634033203 23.801998138427734 43.54031753540039
44.61307144165039 33.90876007080078 31.599828720092773
31.21068572998047 40.920753479003906 62.49984359741211
21.766813278198242 65.76710510253906 90.65789794921875
28.520397186279297 42.3948974609375 80.64179229736328
29.979150772094727 40.329978942871094 67.38477325439453
19.87386703491211 66.59764099121094 107.87950897216797
15.463020324707031 43.525108337402344 44.88770294189453
42.104705810546875 35.10000991821289 41.91432189941406
54.29143142700195 44.11265182495117 40.48387145996094
47.081443786621094 35.36946105957031 12.229561805725098
84.51298522949219 65.13839721679688 30.629690170288086
58.7624397277832 45.6130256652832 41.20524597167969
11.69483757019043 61.738616943359375 54.185791015625
42.292694091796875 38.9534912109375 36.78865432739258
29.59246253967285 42.69972610473633 74.64239501953125
69.7119369506836 55.13026428222656 40.16489791870117
20.130786895751953 66.74349212646484 111.25377655029297
36.579444885253906 30.818300247192383 41.472023010253906
55.95528793334961 43.654510498046875 37.75402069091797
36.27429962158203 32.12644577026367 41.695526123046875
57.63895797729492 31.829126358032227 36.6751823425293
52.59904479980469 46.73271560668945 40.76105880737305
78.28589630126953 60.43187713623047 36.938106536865234
19.619937896728516 66.39551544189453 102.6052474975586
20.78326988220215 65.89569854736328 92.90230560302734
31.424644470214844 63.37624740600586 69.66787719726562
19.523412704467773 66.16352844238281 100.38813781738281
53.52911376953125 38.345638275146484 30.099843978881836
43.2681884765625 56.660804748535156 51.00627136230469
20.170366287231445 40.3369026184082 44.49960708618164
25.037609100341797 65.57292175292969 82.90194702148438
55.061710357666016 41.192996978759766 38.0198974609375
64.05899047851562 50.02476119995117 39.06267547607422
31.090673446655273 63.01356506347656 69.10005187988281
63.84130859375 49.89482116699219 39.59499740600586
47.98428726196289 29.130815505981445 46.02108383178711
44.5445442199707 39.03337478637695 36.516048431396484
11.764102935791016 69.33147430419922 110.25528717041016
39.14229965209961 30.81061553955078 44.49724578857422
72.42473602294922 68.27013397216797 51.78647994995117
36.429500579833984 37.07551956176758 47.395816802978516
63.9788818359375 47.78105163574219 52.3616828918457
43.947086334228516 33.03463363647461 42.08099365234375
55.94089126586914 41.97868347167969 38.54527282714844
78.28103637695312 64.05004119873047 47.59008026123047
33.394683837890625 64.94306182861328 47.3220329284668
82.8691177368164 64.12675476074219 50.577476501464844
72.38043212890625 41.216087341308594 32.60621643066406
23.859752655029297 65.29102325439453 86.96141052246094
11.509089469909668 69.58185577392578 111.38077545166016
47.86174011230469 39.01630401611328 32.69237518310547
16.337848663330078 67.60712432861328 105.47274017333984
47.74378967285156 31.05738639831543 12.004734992980957
64.38007354736328 47.57592010498047 54.58427047729492
47.36310577392578 33.588768005371094 33.948787689208984
51.070167541503906 32.829383850097656 12.264187812805176
55.887386322021484 28.614877700805664 38.85727310180664
8.40538501739502 34.194820404052734 49.41543960571289
20.1806640625 66.91429901123047 111.22142791748047
51.5181999206543 47.943885803222656 44.686344146728516
39.912696838378906 37.33126449584961 42.17056655883789
68.34925079345703 72.26422119140625 55.87007141113281
40.40555953979492 33.784202575683594 38.4678955078125
63.8371696472168 48.66834259033203 51.86243438720703
50.73854064941406 40.194366455078125 25.62012481689453
20.41143035888672 66.72975158691406 115.08940887451172
67.24769592285156 53.24945068359375 39.46150588989258
22.68880844116211 64.67586517333984 86.7192611694336
69.44786071777344 55.06751251220703 39.300880432128906
34.32190704345703 41.1060905456543 59.5730094909668
18.654056549072266 66.81107330322266 102.79072570800781
80.93563079833984 61.653602600097656 34.226505279541016
56.595218658447266 44.894126892089844 41.03641891479492
74.71855163574219 59.7054557800293 42.2136116027832
36.81920623779297 36.87689971923828 49.831947326660156
39.53691101074219 37.62325668334961 46.96612548828125
57.99897003173828 29.18227767944336 36.63582992553711
32.58513259887695 65.74874114990234 47.63470458984375
28.449323654174805 42.3297004699707 85.45809936523438
35.41268539428711 38.326385498046875 49.22646713256836
48.1442756652832 49.25314712524414 45.109352111816406
56.22505187988281 44.78367614746094 35.67251205444336
42.28797149658203 34.82701110839844 34.180564880371094
23.662410736083984 51.34961700439453 52.79491424560547
13.23857307434082 68.52460479736328 108.22998809814453
67.73882293701172 77.57339477539062 61.1041374206543
47.495365142822266 39.821868896484375 30.37183380126953
62.61009979248047 47.921546936035156 50.97152328491211
20.71380043029785 67.0602798461914 114.81536102294922
21.890180587768555 67.49934387207031 84.12014770507812
70.2113265991211 70.3774185180664 53.98213195800781
44.44554138183594 36.00845718383789 36.026309967041016
31.252588272094727 61.43283462524414 67.79393005371094
30.467361450195312 27.3853816986084 53.23561096191406
34.46242904663086 28.68457794189453 46.68915557861328
34.03184127807617 31.284496307373047 44.678470611572266
20.68457794189453 66.28789520263672 98.12158203125
32.778282165527344 39.272090911865234 62.31404495239258
75.73947143554688 60.696502685546875 43.47639465332031
32.6412353515625 62.57831954956055 65.28715515136719
46.785579681396484 34.639930725097656 26.90181541442871
20.184328079223633 67.05987548828125 112.95732116699219
65.8863754272461 51.65193176269531 39.006317138671875
26.817832946777344 48.249271392822266 52.1789665222168
32.548309326171875 61.25248718261719 64.03841400146484
55.38867950439453 40.789981842041016 40.33641815185547
33.39470672607422 30.18707847595215 45.961029052734375
50.57358932495117 38.1652717590332 14.995111465454102
45.37630081176758 33.56660079956055 35.57662582397461
30.398496627807617 27.87022590637207 52.38652801513672
43.20488739013672 36.93719482421875 40.03739929199219
20.435712814331055 66.63874816894531 115.1656494140625
36.73518371582031 59.44512939453125 57.64272689819336
20.585031509399414 66.60271453857422 112.14969635009766
54.588478088378906 29.21891975402832 37.36004638671875
40.359764099121094 36.80445861816406 38.507362365722656
53.785255432128906 39.00528335571289 37.92572021484375
31.98301124572754 61.92332077026367 65.2840576171875
21.25050926208496 66.6203842163086 120.19476318359375
27.104801177978516 43.69111633300781 82.32337188720703
51.77128601074219 37.80708312988281 34.23583221435547
32.16674041748047 28.56825065612793 52.18510055541992
33.70941925048828 26.18301010131836 48.67788314819336
39.134361267089844 38.47377395629883 44.323455810546875
61.095130920410156 45.06391143798828 48.045654296875
45.6473503112793 38.396968841552734 37.52254104614258
72.51663970947266 76.65226745605469 66.02108764648438
38.43193435668945 38.55290222167969 47.753318786621094
18.947322845458984 66.04676818847656 100.75365447998047
27.241722106933594 63.441078186035156 75.34305572509766
64.53826904296875 48.47173309326172 50.90432357788086
31.513797760009766 62.17257308959961 69.91759490966797
40.350704193115234 57.506568908691406 55.975948333740234
38.67923355102539 36.09721374511719 41.77794647216797
36.21497344970703 38.51089859008789 50.450435638427734
27.343276977539062 42.92988586425781 77.28044128417969
63.26190185546875 45.7350959777832 51.38508224487305
36.8447265625 39.05498123168945 51.561153411865234
28.34445571899414 43.66970443725586 80.26637268066406
65.56378936767578 51.493507385253906 38.83441925048828
30.1572322845459 39.959529876708984 67.64220428466797
47.75673294067383 30.7606258392334 13.54261302947998
55.10347366333008 44.753334045410156 39.07765197753906
48.962371826171875 48.7376594543457 45.731849670410156
37.04021453857422 60.74365234375 58.95513916015625
47.8473014831543 35.31808090209961 9.711987495422363
48.96138381958008 37.76264572143555 27.47855567932129
41.236656188964844 38.273319244384766 36.85103988647461
41.20956039428711 55.93147659301758 53.817569732666016
28.421350479125977 40.90303039550781 76.46072387695312
49.46544647216797 39.20907974243164 34.53061294555664
34.222511291503906 41.39088821411133 57.73136901855469
21.971078872680664 65.55838775634766 93.55000305175781
54.64117431640625 32.235748291015625 37.22568893432617
59.49119186401367 46.04104995727539 41.91303634643555
20.412639617919922 66.48236083984375 108.61918640136719
55.696250915527344 42.80513000488281 40.57217788696289
45.41911315917969 38.81894302368164 36.57101821899414
73.35194396972656 40.685264587402344 32.15464782714844
53.28981399536133 46.383636474609375 40.503334045410156
57.08207702636719 31.170255661010742 35.21550750732422
76.04814910888672 60.794097900390625 43.85811233520508
11.670147895812988 69.16804504394531 109.80648803710938
39.046974182128906 31.522541046142578 41.25493240356445
42.865135192871094 33.49739074707031 36.31964874267578
40.52695083618164 32.54379653930664 2.3021910190582275
14.803850173950195 67.80496215820312 106.77255249023438
62.61383819580078 45.14536666870117 46.62343215942383
23.675397872924805 38.50929641723633 45.23063659667969
27.901918411254883 42.33087158203125 74.6606216430664
26.736032485961914 43.39208221435547 82.71060943603516
54.59341812133789 30.59549903869629 36.2377815246582
31.717435836791992 25.5760498046875 43.791358947753906
64.61103820800781 47.459781646728516 54.81839370727539
35.210548400878906 39.25893020629883 50.08979415893555
39.861629486083984 34.60491943359375 42.58159255981445
36.595237731933594 60.10688018798828 57.98086929321289
57.48492431640625 46.04267120361328 42.40288162231445
37.82399368286133 37.41223907470703 46.6509895324707
71.04560852050781 78.1617660522461 64.41787719726562
27.90595245361328 43.31407165527344 79.70782470703125
48.06309127807617 36.59457778930664 26.419601440429688
21.857629776000977 65.7984390258789 94.60164642333984
54.369163513183594 29.120426177978516 36.51750564575195
61.3117561340332 45.25577163696289 48.294490814208984
45.26185607910156 32.162139892578125 -3.624485492706299
79.37519073486328 63.12364959716797 47.290714263916016
66.74394226074219 52.711875915527344 39.68996047973633
33.644351959228516 28.11798667907715 45.38971710205078
57.83567810058594 41.247379302978516 37.50539779663086
40.53540802001953 37.35005569458008 39.81446075439453
37.964759826660156 38.99759292602539 49.94090270996094
13.605993270874023 38.545623779296875 46.97974395751953
18.785356521606445 56.17942428588867 52.94520568847656
28.605924606323242 43.42295455932617 77.40753936767578
22.54688835144043 65.28784942626953 91.93280792236328
40.957332611083984 35.147911071777344 37.5435791015625
45.800418853759766 37.31082534790039 39.07316207885742
37.16328430175781 59.112789154052734 56.721412658691406
27.766664505004883 43.86362838745117 84.47879791259766
21.509944915771484 67.89845275878906 84.5877456665039
22.086803436279297 65.5850601196289 89.72686767578125
20.50373077392578 66.76812744140625 112.02144622802734
44.345741271972656 30.940370559692383 14.816048622131348
22.843645095825195 65.75508880615234 89.00314331054688
28.92914390563965 62.230743408203125 72.61225128173828
64.92521667480469 45.91443634033203 49.177223205566406
56.793251037597656 43.27693557739258 37.793521881103516
50.334293365478516 35.63148880004883 20.015342712402344
20.46607780456543 64.85556030273438 94.32508087158203
50.26734924316406 35.15604782104492 2.46951961517334
58.916412353515625 43.536033630371094 38.114315032958984
32.98530960083008 40.01271438598633 64.33723449707031
28.92339324951172 40.464115142822266 71.21012878417969
27.90717124938965 42.3309326171875 84.78224182128906
31.758825302124023 30.860179901123047 48.43242645263672
59.89149856567383 43.83488464355469 39.129783630371094
43.64251708984375 32.57045364379883 21.50150489807129
32.86102294921875 30.502412796020508 48.126251220703125
26.959169387817383 41.84770965576172 77.73780059814453
44.70668029785156 53.488094329833984 50.03110122680664
55.795631408691406 28.339384078979492 37.71051025390625
54.08397674560547 44.36846160888672 40.04033660888672
32.486202239990234 42.51252365112305 50.830413818359375
33.42188262939453 41.016204833984375 63.397945404052734
62.27259063720703 44.70854568481445 46.95281982421875
69.30957794189453 55.25319290161133 39.27128601074219
37.003868103027344 61.333377838134766 49.65995788574219
35.653900146484375 27.970651626586914 46.457923889160156
47.13241195678711 50.152130126953125 46.543724060058594
50.91455078125 35.46019744873047 28.04153823852539
49.982513427734375 47.34282684326172 44.04594039916992
62.1827392578125 47.508975982666016 45.32197952270508
46.229164123535156 34.076969146728516 37.363548278808594
19.749235153198242 66.26964569091797 107.24851989746094
28.301076889038086 43.55132293701172 81.62286376953125
74.24053955078125 59.478153228759766 42.43507385253906
46.27511978149414 38.165565490722656 37.3483772277832
32.19792938232422 27.8610782623291 53.18844985961914
56.5673828125 29.207996368408203 40.5342903137207
19.548507690429688 65.70177459716797 96.86692810058594
52.3304328918457 39.601749420166016 37.59867858886719
63.858070373535156 47.13825607299805 52.59864807128906
65.25081634521484 45.679039001464844 52.30838394165039
35.07341766357422 39.89512252807617 58.03963088989258
18.856237411499023 65.37772369384766 100.20046997070312
50.238460540771484 34.776878356933594 27.24240493774414
41.879112243652344 35.517818450927734 18.380334854125977
82.59564208984375 63.1302490234375 32.59238052368164
27.022563934326172 41.930721282958984 78.44110870361328
63.27397918701172 41.737186431884766 48.1921501159668
46.31003189086914 33.8085823059082 28.572349548339844
80.56477355957031 65.43047332763672 49.22592544555664
26.235685348510742 42.62892532348633 84.29148864746094
46.12685012817383 31.932031631469727 29.69429588317871
63.181976318359375 47.70201873779297 38.91582107543945
19.546588897705078 66.585205078125 102.99591827392578
64.45191192626953 45.41752243041992 51.40216827392578
39.54819869995117 33.8266487121582 38.66064453125
46.162261962890625 52.893611907958984 49.87550354003906
20.288177490234375 40.30113983154297 44.47202682495117
30.8958797454834 44.1877555847168 51.13677978515625
58.880393981933594 41.32450485229492 39.81340026855469
21.55865478515625 65.42931365966797 91.48596954345703
78.51338958740234 60.52396774291992 36.756072998046875
22.271059036254883 66.10079193115234 92.09993743896484
28.59393310546875 62.714874267578125 75.1757583618164
83.75995635986328 56.37010955810547 35.87815475463867
12.676993370056152 69.24398803710938 108.61223602294922
36.7428092956543 30.389127731323242 46.740196228027344
58.33244323730469 45.78142166137695 44.60353469848633
45.23048400878906 37.714168548583984 29.553224563598633
74.72754669189453 59.65793228149414 42.5467414855957
45.04826354980469 33.323585510253906 35.2813606262207
59.44611358642578 30.32344627380371 37.88684844970703
27.782438278198242 43.293739318847656 77.60420227050781
35.22389602661133 60.39012908935547 60.32160949707031
27.721826553344727 40.86198425292969 77.40888214111328
27.39422607421875 40.84880828857422 80.20553588867188
33.00213623046875 28.37247085571289 51.39030838012695
32.84761428833008 26.95503807067871 44.456607818603516
20.358190536499023 54.54328536987305 52.83873748779297
44.385963439941406 53.288551330566406 48.82450485229492
61.5740966796875 46.29629898071289 43.614200592041016
30.929027557373047 41.80376434326172 70.28556060791016
71.6837387084961 69.00223541259766 52.53853988647461
77.02655792236328 61.456356048583984 45.22116470336914
62.09793472290039 47.67970275878906 49.94122314453125
74.00202941894531 58.86518478393555 41.01908874511719
37.53116226196289 38.73263168334961 49.2716178894043
21.630531311035156 65.66008758544922 89.86772155761719
72.344970703125 41.25053405761719 32.63001251220703
20.814048767089844 66.52754974365234 117.11600494384766
24.254030227661133 64.45924377441406 86.11260986328125
10.761058807373047 69.73905944824219 113.62124633789062
31.62806510925293 28.807844161987305 47.37132263183594
52.08103942871094 30.425159454345703 32.35251235961914
44.0362434387207 55.93220520019531 52.09080123901367
25.55051040649414 45.047019958496094 88.06462860107422
30.513322830200195 32.829856872558594 47.5133056640625
55.24638366699219 42.30979919433594 38.60072326660156
63.99610137939453 46.120330810546875 52.34672927856445
29.506528854370117 26.3087215423584 51.85364532470703
41.75997543334961 56.20219802856445 53.14354705810547
24.066898345947266 64.78362274169922 85.65150451660156
62.88495635986328 48.93770217895508 39.67679977416992
48.64188766479492 39.16074752807617 3.9187252521514893
41.24421691894531 35.33555603027344 10.798565864562988
33.4710807800293 60.41782760620117 64.8673095703125
49.72103500366211 32.51336669921875 27.815319061279297
66.19406127929688 46.532955169677734 51.88444900512695
52.30656433105469 47.77284622192383 41.96734619140625
67.33267211914062 52.81529998779297 39.36708068847656
39.3200798034668 36.906761169433594 47.489017486572266
30.345291137695312 27.946121215820312 53.09103775024414
63.460262298583984 44.75337600708008 47.50074768066406
58.67232131958008 41.949649810791016 41.811553955078125
60.67171096801758 44.97452163696289 40.58526611328125
33.153507232666016 29.65908432006836 45.24939727783203
79.48909759521484 64.3480224609375 48.17521286010742
62.070167541503906 43.218467712402344 45.2507209777832
33.228721618652344 38.56913375854492 55.76625061035156
19.40764617919922 65.86277770996094 104.43722534179688
71.89612579345703 57.30373001098633 40.20061111450195
28.38503646850586 42.022972106933594 71.37464141845703
25.194355010986328 64.43187713623047 84.34529876708984
26.092233657836914 43.16828918457031 83.56145477294922
12.164599418640137 37.59682083129883 48.001834869384766
31.901079177856445 39.42451095581055 63.95603561401367
48.49330520629883 38.90085983276367 27.79433250427246
21.48502540588379 53.46980667114258 52.812171936035156
60.02817153930664 45.34473419189453 46.33000183105469
44.66184997558594 29.88132095336914 4.058150291442871
22.53718376159668 65.64241790771484 88.62947082519531
17.062259674072266 66.71174621582031 104.51428985595703
27.94646644592285 62.791622161865234 75.39686584472656
22.83680534362793 64.9980697631836 90.03987884521484
19.74186134338379 66.22148132324219 96.82442474365234
50.034080505371094 31.305158615112305 16.658008575439453
80.7055435180664 61.393890380859375 34.45646667480469
52.94025421142578 39.75985336303711 29.57229232788086
25.476444244384766 44.652278900146484 87.26699829101562
50.2666015625 36.39955139160156 29.99639129638672
20.839553833007812 66.69747161865234 117.4462890625
40.020721435546875 58.03501510620117 52.9119758605957
35.03312301635742 59.97642517089844 62.018035888671875
65.08132934570312 46.30311584472656 37.23060989379883
15.5254545211792 43.49747085571289 44.82987594604492
61.39231872558594 46.08370590209961 40.65584182739258
25.219079971313477 63.95476150512695 82.98081970214844
51.85043716430664 33.43460464477539 28.763805389404297
39.17218017578125 35.565399169921875 45.43598556518555
29.811262130737305 42.896644592285156 75.6203842163086
21.377275466918945 66.74837493896484 119.22250366210938
82.52445220947266 63.07024002075195 32.668479919433594
34.79964065551758 28.781232833862305 45.340389251708984
38.01573944091797 30.257484436035156 42.453189849853516
48.32539367675781 35.24192428588867 4.135077953338623
54.46781539916992 33.02532196044922 35.894596099853516
56.028995513916016 40.7425422668457 40.29432678222656
75.4688949584961 65.22038269042969 48.72679901123047
52.19929504394531 45.96708679199219 42.488670349121094
26.496517181396484 63.05790710449219 78.07532501220703
62.984642028808594 45.046104431152344 45.077816009521484
27.92255973815918 42.66538619995117 74.8200912475586
37.40415573120117 58.96175765991211 59.78554153442383
24.13075828552246 65.41693878173828 82.75846862792969
41.62901306152344 34.6459846496582 38.50639724731445
73.40619659423828 58.76534652709961 41.39398193359375
49.43138885498047 35.67674255371094 26.93524932861328
20.142148971557617 66.89851379394531 111.9666748046875
50.47024154663086 36.18379211425781 30.077844619750977
76.3719482421875 60.99652862548828 44.080081939697266
30.738502502441406 24.704559326171875 43.74402618408203
27.727596282958984 42.16770935058594 85.8325424194336
69.5872573852539 42.859737396240234 34.165130615234375
75.2771987915039 60.35611343383789 43.368038177490234
48.563873291015625 39.465450286865234 31.6038761138916
46.716651916503906 50.834754943847656 47.14594650268555
36.25065231323242 39.96452331542969 52.47417068481445
23.909564971923828 38.35409927368164 45.26182556152344
29.198749542236328 40.74639129638672 70.08171081542969
28.43166160583496 41.50422668457031 70.75596618652344
59.87508010864258 43.13786697387695 40.32109069824219
49.908470153808594 48.71217346191406 43.5050163269043
45.62160110473633 36.005592346191406 32.02671432495117
41.80469512939453 33.94329833984375 36.11825942993164
25.30408477783203 64.38253784179688 78.96078491210938
48.15993881225586 33.70858383178711 29.683914184570312
48.52558135986328 49.16408157348633 46.066551208496094
28.185396194458008 41.18815994262695 81.44840240478516
36.95490264892578 37.394569396972656 51.10661315917969
48.639617919921875 38.51565933227539 33.662471771240234
19.563461303710938 66.47559356689453 98.75151824951172
51.8187141418457 33.22506332397461 29.249324798583984
33.48969650268555 60.529945373535156 62.89866638183594
31.971460342407227 27.915260314941406 48.67784881591797
33.322654724121094 41.09783172607422 63.852046966552734
30.65945053100586 63.07733917236328 69.544921875
45.21471405029297 38.38818359375 37.878807067871094
28.144695281982422 41.6848258972168 83.72724151611328
58.43108367919922 41.5865592956543 37.32857131958008
75.90574645996094 59.48218536376953 39.24930953979492
26.486610412597656 63.97858428955078 80.84858703613281
44.69468307495117 40.4069709777832 3.2466020584106445
47.03575134277344 30.09768295288086 5.773602485656738
19.50452423095703 66.25862121582031 109.10095977783203
13.115301132202148 69.4798355102539 108.52101135253906
74.50942993164062 59.66108322143555 42.38193130493164
28.341983795166016 41.66917419433594 71.23045349121094
22.58448600769043 66.07244873046875 91.1530532836914
50.55951690673828 49.27793502807617 43.27296829223633
55.12457275390625 29.48015785217285 38.586944580078125
64.39566802978516 49.03406524658203 52.74247360229492
