91.3215560913086 77.05111694335938 69.61617279052734
91.97997283935547 76.39859008789062 69.70353698730469
92.20872497558594 76.17839050292969 69.73687744140625
91.80725860595703 76.52469635009766 69.7074203491211
92.05715942382812 76.30701446533203 69.74395751953125
93.62757873535156 74.79800415039062 69.64957427978516
92.3465576171875 76.04003143310547 69.71775817871094
91.58834838867188 76.75637817382812 69.66156005859375
93.30463409423828 75.13406372070312 69.69921875
93.67085266113281 74.73921203613281 69.6446762084961
93.4626235961914 74.9217529296875 69.66654205322266
91.30517578125 77.03724670410156 69.59085845947266
91.54771423339844 76.80426788330078 69.65664672851562
92.5980224609375 75.859619140625 69.70974731445312
93.48284149169922 74.94017791748047 69.6783218383789
92.86612701416016 75.49199676513672 69.72030639648438
91.84444427490234 76.55599212646484 69.70198822021484
92.81900024414062 75.57979583740234 69.75521850585938
92.5980224609375 75.859619140625 69.70974731445312
91.45879364013672 76.90058898925781 69.63951110839844
91.42205047607422 76.95384216308594 69.62396240234375
91.22274780273438 77.14034271240234 69.56997680664062
93.67085266113281 74.73921203613281 69.6446762084961
93.06397247314453 75.32897186279297 69.73677062988281
91.67291259765625 76.67755126953125 69.70767974853516
91.20741271972656 77.12228393554688 69.61579132080078
93.01314544677734 75.36973571777344 69.73787689208984
91.64511108398438 76.71661376953125 69.6559829711914
91.78741455078125 76.60420989990234 69.71365356445312
89.75962829589844 78.50479125976562 69.13729858398438
89.2938461303711 78.98448181152344 68.98748016357422
89.33902740478516 78.92083740234375 68.98735046386719
90.70700073242188 77.62642669677734 69.47916412353516
89.2236328125 79.03636932373047 68.98941040039062
89.99506378173828 78.26934814453125 69.24159240722656
89.54696655273438 78.7381591796875 69.05108642578125
90.57321166992188 77.75447845458984 69.43844604492188
89.26823425292969 78.95903778076172 69.00657653808594
90.33158874511719 77.95714569091797 69.3408203125
89.2236328125 79.03636932373047 68.98941040039062
89.54696655273438 78.7381591796875 69.05108642578125
89.8583984375 78.42151641845703 69.20372772216797
89.54696655273438 78.7381591796875 69.05108642578125
89.43742370605469 78.82608795166016 69.01242065429688
89.71061706542969 78.57005310058594 69.12649536132812
89.54696655273438 78.7381591796875 69.05108642578125
89.54696655273438 78.7381591796875 69.05108642578125
89.1841812133789 79.09015655517578 68.97317504882812
90.44612121582031 77.80548095703125 69.38529968261719
89.54696655273438 78.7381591796875 69.05108642578125
90.70700073242188 77.62642669677734 69.47916412353516
90.37454986572266 77.90208435058594 69.34407043457031
62.500709533691406 50.76536178588867 47.69041442871094
63.71727752685547 49.277862548828125 41.44451904296875
65.33039093017578 48.48470687866211 40.688541412353516
63.50040054321289 49.02537155151367 44.41036605834961
64.32830810546875 50.14324188232422 45.963584899902344
63.78998947143555 48.95354080200195 41.15174865722656
63.12784194946289 48.573699951171875 42.34688186645508
62.55487823486328 51.46940612792969 46.894954681396484
65.20953369140625 48.157997131347656 41.0806770324707
64.61978149414062 50.10438919067383 40.7923583984375
65.97167205810547 51.24671936035156 41.668155670166016
65.72405242919922 48.64678955078125 40.78369140625
64.55457305908203 47.1279296875 42.49694061279297
62.64174270629883 51.12055206298828 46.020606994628906
64.87937927246094 51.84974670410156 45.53199005126953
64.85552978515625 48.919471740722656 40.89815902709961
65.1474838256836 50.1174430847168 47.34223556518555
65.00878143310547 49.037410736083984 47.68733215332031
64.74905395507812 48.344512939453125 42.625274658203125
62.951881408691406 51.91461181640625 46.818641662597656
62.97966384887695 49.752891540527344 48.01018524169922
64.7028579711914 50.08713912963867 41.022789001464844
63.770084381103516 50.214603424072266 44.99330139160156
66.63784790039062 49.26988983154297 40.88532638549805
65.12001037597656 48.855655670166016 46.131591796875
65.02708435058594 49.047367095947266 41.71075439453125
65.89552307128906 50.873558044433594 41.85100555419922
65.84489440917969 49.99638366699219 42.277252197265625
64.96126556396484 48.28083038330078 46.96062088012695
63.255516052246094 51.239479064941406 45.531307220458984
64.97046661376953 48.12947463989258 42.362144470214844
62.6265983581543 50.52607727050781 47.93864822387695
65.46728515625 50.52008056640625 41.96683883666992
65.5897445678711 51.120765686035156 45.908016204833984
65.20217895507812 50.141605377197266 45.97754669189453
65.53050231933594 50.11286926269531 47.52581787109375
64.75579833984375 47.5554313659668 41.87343978881836
63.962745666503906 48.486724853515625 44.31084060668945
63.00178146362305 48.78858947753906 47.07184982299805
65.28190612792969 48.18452072143555 41.79250717163086
65.2525863647461 48.80500030517578 41.898067474365234
64.96112823486328 49.93117904663086 40.348880767822266
64.69168090820312 50.679752349853516 45.42873001098633
65.83811950683594 51.2889289855957 46.31946563720703
62.74296569824219 49.447696685791016 48.306060791015625
64.75927734375 49.45187759399414 48.195037841796875
65.71458435058594 49.81117630004883 47.15932083129883
63.03013610839844 50.14836120605469 48.41904830932617
63.71826171875 49.70265579223633 48.44797897338867
63.179901123046875 48.44151306152344 41.9126091003418
64.11672973632812 48.89775085449219 48.01819610595703
65.01190185546875 50.28841781616211 46.30487823486328
64.63134765625 47.61593246459961 41.53925323486328
64.64539337158203 49.673309326171875 45.2409553527832
64.61235046386719 48.12007522583008 40.86488723754883
64.06216430664062 48.00530242919922 46.11764144897461
63.598548889160156 48.55821228027344 46.14256286621094
65.07112884521484 49.165889739990234 47.79862594604492
63.03938293457031 49.171512603759766 47.60511016845703
62.60213851928711 51.34142303466797 46.80133056640625
63.6683235168457 48.51624298095703 44.665348052978516
64.79316711425781 50.18802261352539 40.7349739074707
64.34356689453125 50.275108337402344 48.172203063964844
63.25156784057617 48.33888244628906 41.59134292602539
65.30731964111328 48.88867950439453 46.834938049316406
65.34212493896484 48.587646484375 41.77146911621094
64.88607788085938 47.491146087646484 42.69176483154297
63.69856643676758 49.55335998535156 48.04484939575195
66.3669204711914 49.371185302734375 40.90313720703125
65.25516510009766 48.970985412597656 46.30032730102539
62.49010467529297 50.26918029785156 48.051239013671875
62.88780975341797 49.185020446777344 47.82801055908203
63.565528869628906 49.02498245239258 43.14339828491211
65.1707992553711 48.8182258605957 47.082523345947266
66.31595611572266 49.51228332519531 42.08073806762695
65.57553100585938 49.32852554321289 40.58604431152344
64.51244354248047 51.330909729003906 45.54872512817383
62.50308609008789 50.067840576171875 47.97957229614258
63.437294006347656 52.12316131591797 45.9637565612793
64.54742431640625 49.538516998291016 41.41050338745117
64.74470520019531 50.102088928222656 41.65669250488281
64.85124969482422 49.8328857421875 48.17816162109375
63.92408752441406 51.369407653808594 45.59641647338867
64.42156219482422 47.38637924194336 42.350341796875
64.63603973388672 48.28163146972656 43.38672637939453
65.81204223632812 48.782188415527344 41.84479522705078
62.793067932128906 50.637386322021484 48.08505630493164
64.57878875732422 51.76655197143555 46.46427917480469
64.09309387207031 49.35503005981445 44.889549255371094
65.47837829589844 49.170997619628906 42.53887939453125
64.29408264160156 48.863609313964844 40.61277770996094
65.41503143310547 50.9165153503418 40.75787353515625
64.55917358398438 48.95366668701172 42.633296966552734
64.8198471069336 48.228450775146484 41.05995178222656
64.984375 51.167274475097656 45.567134857177734
64.01488494873047 49.479732513427734 41.42525863647461
65.06631469726562 50.167091369628906 41.96316909790039
63.47123718261719 48.250389099121094 41.3459358215332
65.08819580078125 51.28761672973633 46.17392349243164
65.78682708740234 51.23801803588867 41.43940353393555
65.70852661132812 49.159156799316406 42.47157669067383
64.51631927490234 49.051597595214844 45.2471923828125
64.26681518554688 47.95718002319336 45.4190673828125
62.89397048950195 48.613548278808594 43.78290557861328
64.07846069335938 48.33384704589844 40.832122802734375
65.27503967285156 48.654598236083984 42.74870681762695
65.07962799072266 47.6727409362793 41.971160888671875
66.4670639038086 49.22340774536133 40.656734466552734
66.36527252197266 50.603240966796875 42.08338165283203
63.37992858886719 48.61692428588867 42.30562973022461
62.81664276123047 51.694889068603516 46.47696304321289
64.457275390625 50.73672103881836 45.76652145385742
63.17177963256836 50.00592041015625 47.98756408691406
61.914913177490234 49.60090255737305 45.46530532836914
63.02848815917969 49.355411529541016 45.16557312011719
62.895442962646484 50.66395950317383 45.435848236083984
64.65457916259766 47.8118782043457 42.960243225097656
64.32843017578125 47.46611785888672 42.88997268676758
63.06714630126953 49.14281463623047 45.39474868774414
64.30201721191406 47.98674011230469 41.06892776489258
64.95108795166016 49.57062530517578 48.0625114440918
63.075439453125 48.80412673950195 43.93363571166992
64.52674865722656 49.141414642333984 41.303707122802734
64.0278549194336 49.389190673828125 40.979923248291016
63.72730255126953 49.23445510864258 42.67951202392578
62.44379806518555 50.504722595214844 47.90281295776367
66.77950286865234 49.570045471191406 41.54846954345703
66.94256591796875 49.8380126953125 41.80437088012695
63.54854202270508 48.27642822265625 45.682708740234375
62.63933181762695 51.500885009765625 47.16599655151367
65.2454605102539 48.883460998535156 46.45831298828125
63.09772872924805 49.66188049316406 47.63761901855469
62.17998123168945 50.38775634765625 46.42422103881836
63.499908447265625 48.05569076538086 43.065982818603516
63.0977783203125 50.8480110168457 48.09029006958008
63.855892181396484 48.90660095214844 41.0167350769043
65.9888916015625 49.10271453857422 42.23825454711914
63.79316329956055 48.61598205566406 41.13037109375
63.25046157836914 52.16688919067383 46.360862731933594
63.848960876464844 48.65217208862305 40.90420913696289
64.60950469970703 50.61822509765625 47.13509750366211
65.33997344970703 48.18331527709961 42.52579879760742
62.27503967285156 49.83948516845703 45.60685348510742
63.886390686035156 48.492759704589844 43.8572883605957
63.703060150146484 48.25644302368164 41.22285842895508
64.09197998046875 48.366573333740234 40.9904670715332
64.08662414550781 48.51165008544922 41.21965408325195
64.28581237792969 47.41346740722656 41.98027801513672
64.38997650146484 47.81522750854492 45.82194519042969
63.072933197021484 49.752037048339844 44.960575103759766
63.459922790527344 47.832008361816406 41.408321380615234
62.85566711425781 51.554073333740234 46.843048095703125
62.64190673828125 50.57707595825195 46.77363967895508
62.9932746887207 51.71881866455078 46.095558166503906
64.1478271484375 50.86039733886719 45.98450469970703
64.02702331542969 49.421348571777344 42.52558898925781
62.970218658447266 48.64023971557617 42.44450378417969
62.21236038208008 50.04146194458008 45.448543548583984
64.39301300048828 48.009674072265625 45.389915466308594
65.00503540039062 49.01314926147461 47.71575164794922
63.73652648925781 50.66641616821289 46.305625915527344
64.9849624633789 50.6165657043457 41.231441497802734
65.83383178710938 49.4206428527832 40.275062561035156
64.8849868774414 49.498233795166016 42.41279983520508
62.87413024902344 49.384674072265625 44.7236442565918
63.35044479370117 48.77335739135742 47.98715591430664
62.24105453491211 50.3756217956543 47.01758575439453
64.059814453125 47.520164489746094 42.210548400878906
62.94034194946289 48.80461502075195 46.300453186035156
62.6207389831543 50.7680778503418 47.77643585205078
65.86698150634766 50.55983352661133 42.02322769165039
62.642887115478516 50.97862243652344 46.060630798339844
65.0376205444336 49.59127426147461 45.851806640625
63.46000671386719 48.58181381225586 44.87364959716797
64.56626892089844 48.028114318847656 42.79196548461914
63.42437744140625 48.24176025390625 41.52012252807617
64.91914367675781 52.176212310791016 45.836265563964844
64.03752899169922 47.94355010986328 41.09363555908203
63.1617317199707 50.70269775390625 47.864864349365234
63.48657989501953 47.97627258300781 41.68967819213867
64.48148345947266 48.73208236694336 40.5336799621582
64.83548736572266 50.39236831665039 41.00613784790039
62.79606246948242 49.92888641357422 48.25135803222656
62.29792404174805 50.64988708496094 47.57921600341797
63.83021926879883 49.00204849243164 45.69395446777344
64.82239532470703 50.317203521728516 41.60518264770508
63.469547271728516 50.78093338012695 46.796268463134766
63.60393524169922 49.00292205810547 45.15822982788086
66.22657012939453 49.08640670776367 41.5755729675293
64.93262481689453 50.331932067871094 40.59117126464844
64.1930160522461 51.10483932495117 45.6334228515625
64.60387420654297 47.45014953613281 42.734500885009766
65.39411926269531 48.295387268066406 42.154205322265625
64.40980529785156 51.597572326660156 45.92314147949219
66.38125610351562 49.00129699707031 41.53343200683594
61.84391403198242 49.87519454956055 47.2106819152832
65.1817626953125 50.39349365234375 41.23463821411133
63.72367858886719 48.91089630126953 45.41621780395508
64.21957397460938 49.74447250366211 41.88252258300781
63.42795944213867 48.390411376953125 44.29122543334961
62.504093170166016 49.313812255859375 47.45256042480469
65.30577850341797 52.04637145996094 45.7461051940918
66.364990234375 49.057273864746094 41.02438735961914
64.10826110839844 49.725921630859375 41.67808151245117
64.59971618652344 50.22107696533203 40.99290084838867
65.84097290039062 50.39365005493164 46.31822967529297
64.94754028320312 50.88200378417969 45.48130798339844
63.820125579833984 48.055137634277344 43.175148010253906
66.01417541503906 48.59462356567383 41.71710968017578
65.49479675292969 49.73017501831055 40.567779541015625
64.9967269897461 50.20195388793945 48.07573699951172
62.681941986083984 51.0023078918457 48.004920959472656
64.61280822753906 50.619598388671875 46.11727523803711
65.36307525634766 50.869503021240234 41.06999206542969
62.82619857788086 48.937477111816406 44.49107360839844
64.11576080322266 51.08287048339844 46.28853988647461
65.36035919189453 48.68861770629883 40.873775482177734
65.4094467163086 50.14707946777344 42.056365966796875
63.647743225097656 47.657928466796875 41.3237190246582
65.26986694335938 49.40107345581055 42.52591323852539
64.9034194946289 50.29689407348633 45.816490173339844
65.29222869873047 47.97560501098633 42.340641021728516
64.07112121582031 48.00685119628906 44.80768585205078
65.2609634399414 50.636295318603516 41.65166473388672
65.33241271972656 50.43796157836914 40.90185546875
66.22582244873047 50.588016510009766 42.02804946899414
65.31430053710938 50.19679641723633 48.01534652709961
63.24122619628906 52.187808990478516 46.213111877441406
62.674171447753906 50.24521255493164 47.526084899902344
65.23614501953125 50.80358123779297 41.38764572143555
65.00375366210938 49.553653717041016 42.087406158447266
65.76881408691406 48.90921401977539 42.39981460571289
64.4489517211914 50.00849533081055 41.83086013793945
64.52497863769531 48.62354278564453 40.58766555786133
65.29784393310547 49.736061096191406 47.8065185546875
65.53272247314453 49.81643295288086 40.217464447021484
65.83637237548828 50.39139175415039 42.13694763183594
63.973472595214844 50.55344009399414 48.014129638671875
64.37106323242188 48.43783187866211 40.7977409362793
64.54519653320312 48.11241149902344 43.237937927246094
64.81393432617188 50.44609451293945 45.59834289550781
64.61827850341797 47.38711929321289 43.001258850097656
62.80881881713867 50.74658966064453 48.27935028076172
64.10279083251953 47.67502975463867 41.25875473022461
66.29578399658203 49.24394226074219 41.14765930175781
64.50196075439453 47.76532745361328 46.41935729980469
66.21470642089844 49.317352294921875 40.86811065673828
66.05093383789062 49.5580940246582 42.295799255371094
65.22339630126953 48.978519439697266 47.35895538330078
64.57461547851562 49.27919006347656 42.701202392578125
63.42487335205078 48.87479782104492 48.34560775756836
61.822975158691406 49.63809585571289 45.7724609375
62.712318420410156 49.320091247558594 45.03408432006836
64.11588287353516 48.50142288208008 41.02534866333008
63.429039001464844 50.40591049194336 45.10888671875
64.8756103515625 49.40656280517578 42.559295654296875
64.17826843261719 50.507389068603516 45.327144622802734
65.77009582519531 48.4432258605957 42.10154724121094
64.4695053100586 51.539119720458984 45.44136428833008
62.49748611450195 49.619972229003906 47.683082580566406
62.9277458190918 51.622257232666016 46.23094940185547
63.38399124145508 48.98509979248047 42.64664077758789
64.5693588256836 50.19982147216797 47.933372497558594
64.5640640258789 50.14662170410156 47.7007942199707
65.10002136230469 50.352664947509766 41.55953598022461
64.3649673461914 51.406612396240234 46.136260986328125
64.48528289794922 49.79880905151367 48.23467254638672
64.33103942871094 48.582801818847656 40.77753829956055
62.61009979248047 50.97152328491211 47.921546936035156
63.26190185546875 51.38508224487305 45.7350959777832
64.92521667480469 49.177223205566406 45.91443634033203
65.25081634521484 52.30838394165039 45.679039001464844
63.27397918701172 48.1921501159668 41.737186431884766
64.45191192626953 51.40216827392578 45.41752243041992
64.1672592163086 49.55613327026367 41.60882568359375
62.09793472290039 49.94122314453125 47.67970275878906
66.1631088256836 48.94807052612305 41.94674301147461
64.70792388916016 50.105533599853516 41.44862747192383
64.59989929199219 49.1178092956543 40.4565315246582
63.52228546142578 50.75992202758789 45.14787292480469
64.41121673583984 48.66777038574219 41.03123474121094
63.99974060058594 50.02375411987305 44.998741149902344
63.908958435058594 49.07624435424805 41.48303985595703
63.62059783935547 49.67942810058594 44.751800537109375
64.89572143554688 47.84954833984375 41.29732131958008
63.648860931396484 49.244510650634766 41.762855529785156
64.31475830078125 48.407386779785156 40.68696212768555
63.98724365234375 48.51156997680664 43.2823600769043
62.50475311279297 49.77149200439453 48.077667236328125
64.58551025390625 47.75339126586914 41.27851867675781
65.10209655761719 50.47135925292969 45.66166305541992
63.84796905517578 50.03600311279297 45.03543472290039
63.610355377197266 48.919654846191406 41.3928108215332
63.402225494384766 48.905784606933594 42.22016906738281
62.86225891113281 50.86222457885742 45.644859313964844
66.44363403320312 49.21415328979492 41.79051208496094
62.95936965942383 48.880218505859375 44.971065521240234
63.26217269897461 49.0179557800293 44.30601501464844
64.00338745117188 47.777000427246094 41.759613037109375
62.343910217285156 50.48745346069336 46.48512649536133
62.70628356933594 50.62007522583008 47.702369689941406
62.04050064086914 50.54372787475586 46.896087646484375
65.27458953857422 50.400264739990234 45.66351318359375
65.441650390625 48.17070770263672 41.41991424560547
61.94199752807617 49.987884521484375 47.36004638671875
64.69242858886719 48.216087341308594 46.31637954711914
63.31949996948242 48.65544128417969 44.08464050292969
66.54959106445312 49.2355842590332 41.47925567626953
65.04766845703125 49.76426696777344 47.9456672668457
66.16984558105469 49.9322624206543 42.20722579956055
65.96257781982422 48.64909744262695 41.92660903930664
63.48385238647461 49.16209030151367 42.15309143066406
63.66835021972656 47.743324279785156 41.56544876098633
62.95735168457031 51.16358947753906 46.99877166748047
65.05609893798828 50.44893264770508 45.487709045410156
64.05632781982422 48.011470794677734 41.014774322509766
64.38178253173828 48.80807876586914 45.6615104675293
62.82160949707031 50.36050796508789 47.90523147583008
64.3283462524414 47.926639556884766 46.32345199584961
64.40035247802734 49.862735748291016 48.39578628540039
65.75897216796875 49.764747619628906 47.02888107299805
65.28669738769531 49.06015396118164 47.41975784301758
64.265625 48.04445266723633 45.841182708740234
65.4513931274414 51.62690353393555 45.708473205566406
63.575645446777344 51.885345458984375 45.76523208618164
65.88307189941406 49.6696891784668 40.8242073059082
63.04384231567383 50.61511993408203 48.357852935791016
65.91813659667969 50.526580810546875 47.53485870361328
63.09233093261719 49.25093460083008 44.6135368347168
62.58348083496094 49.79512023925781 47.926605224609375
61.801876068115234 49.772701263427734 47.009117126464844
65.37137603759766 50.30546569824219 41.14622497558594
65.02408599853516 49.881935119628906 42.22087478637695
62.53207015991211 49.60655212402344 48.029449462890625
64.3265151977539 48.0850830078125 40.98493957519531
65.49149322509766 48.98221206665039 40.56828308105469
63.04310607910156 49.57736587524414 48.1889533996582
63.79059982299805 50.2637939453125 45.016727447509766
65.3952407836914 48.55540466308594 42.51218032836914
63.40034484863281 48.53668212890625 42.759910583496094
63.15919494628906 49.44949722290039 45.114376068115234
63.13727951049805 50.038143157958984 48.35413360595703
62.770225524902344 50.652103424072266 46.416656494140625
64.919189453125 50.903385162353516 45.586143493652344
62.83632278442383 51.815338134765625 46.529502868652344
63.117645263671875 50.813316345214844 47.58774185180664
64.22474670410156 48.05378723144531 43.74655532836914
65.04694366455078 50.28813171386719 40.991634368896484
62.49822998046875 49.425506591796875 45.30388641357422
62.800628662109375 50.17866897583008 47.78255844116211
64.43035888671875 50.647178649902344 45.283382415771484
62.82331085205078 49.226318359375 44.59494400024414
65.44963073730469 50.506492614746094 41.67364501953125
64.50019073486328 49.35276412963867 42.4532356262207
62.34389877319336 51.002906799316406 47.044673919677734
64.15501403808594 48.64862823486328 48.13529968261719
65.80589294433594 48.81825637817383 42.12477493286133
62.824424743652344 51.35591125488281 47.439918518066406
65.0425796508789 48.58313751220703 41.23933029174805
65.73792266845703 50.52766036987305 46.15264129638672
65.47186279296875 49.536376953125 42.38090515136719
63.81528091430664 49.35791015625 41.64781951904297
64.5448226928711 48.98525619506836 48.012874603271484
64.85115814208984 47.650753021240234 42.89499282836914
63.87070846557617 51.7275505065918 45.621124267578125
64.55232238769531 47.71172332763672 42.3933219909668
64.8134765625 49.77037048339844 45.87515640258789
63.69612121582031 49.29082489013672 42.22716522216797
63.947776794433594 49.1080207824707 41.35481262207031
64.50765228271484 50.19126510620117 41.353267669677734
66.51290130615234 50.853355407714844 42.07954025268555
62.53725051879883 51.00985336303711 46.827476501464844
65.20962524414062 51.0395622253418 45.86129379272461
65.40619659423828 50.35636520385742 45.918155670166016
62.359378814697266 50.411231994628906 47.7957649230957
64.1661376953125 49.56624984741211 42.34673309326172
64.11601257324219 50.443267822265625 45.1927604675293
63.72794723510742 49.153968811035156 45.080928802490234
62.59001159667969 50.96354675292969 47.30984878540039
64.57325744628906 48.46568298339844 45.93043899536133
63.6145133972168 49.226810455322266 44.488983154296875
62.991783142089844 49.95284652709961 45.25394821166992
65.24542236328125 50.3325309753418 40.31619644165039
62.911678314208984 51.68572235107422 46.70419692993164
64.5196762084961 47.78803253173828 46.22348403930664
65.01644134521484 49.228050231933594 40.3393440246582
63.91409683227539 50.6976318359375 48.52354049682617
66.3492660522461 54.63311004638672 46.373653411865234
62.702301025390625 51.39490509033203 47.77556228637695
65.5953140258789 50.41886901855469 48.12334060668945
66.6240005493164 53.811920166015625 48.5279426574707
64.11644744873047 50.975284576416016 47.85470962524414
66.89712524414062 54.16926956176758 47.169029235839844
67.22528076171875 54.97224426269531 49.669036865234375
62.967769622802734 51.48170471191406 47.9471549987793
64.08372497558594 54.17498779296875 47.484310150146484
65.34674835205078 55.805931091308594 46.825408935546875
66.10009002685547 54.5744514465332 49.24443435668945
66.3770980834961 55.63138961791992 46.57175827026367
66.21923065185547 55.18192672729492 46.54461669921875
67.58718872070312 55.37715530395508 47.00323486328125
63.49052429199219 50.602054595947266 48.528106689453125
66.07633209228516 51.838985443115234 46.03446578979492
64.16551208496094 53.835853576660156 46.79179382324219
66.88929748535156 54.61134719848633 49.4510612487793
64.61334228515625 52.13127136230469 46.43222427368164
66.52574157714844 56.206565856933594 47.34120178222656
64.56855010986328 54.00846481323242 48.238590240478516
64.51167297363281 53.33930587768555 49.0185546875
65.42329406738281 52.17026138305664 46.314598083496094
66.90280151367188 54.24784469604492 49.515785217285156
66.903564453125 54.650550842285156 47.7149543762207
66.20243835449219 55.975440979003906 47.37346649169922
66.0801010131836 54.145347595214844 46.51152420043945
65.10824584960938 55.214080810546875 49.501434326171875
64.93650817871094 54.0481071472168 49.32268142700195
64.3946304321289 52.902984619140625 49.074180603027344
64.20697784423828 53.741737365722656 47.993202209472656
64.8880844116211 50.27869415283203 48.36402893066406
64.63038635253906 51.1324462890625 48.860599517822266
67.5082015991211 55.04681396484375 49.44792938232422
64.44429779052734 54.263214111328125 46.70405960083008
65.38592529296875 55.09212875366211 47.77640914916992
64.85101318359375 55.244659423828125 49.086570739746094
64.69913482666016 51.00465774536133 48.83800506591797
65.30167388916016 50.75267028808594 48.515174865722656
66.04773712158203 55.56685256958008 49.498538970947266
66.00872802734375 51.07952880859375 47.42924880981445
65.064208984375 52.76740264892578 49.24177932739258
65.7234878540039 54.75132751464844 48.21760559082031
64.009521484375 53.67090606689453 47.817230224609375
67.51663970947266 54.81627655029297 47.05401611328125
64.64195251464844 55.86146545410156 48.116493225097656
64.82227325439453 55.63884735107422 47.073631286621094
64.743896484375 54.2282829284668 46.796016693115234
63.81382369995117 53.20812225341797 48.57242965698242
66.10845947265625 53.948692321777344 46.15705108642578
67.6544189453125 54.42552947998047 47.50511169433594
66.06413269042969 52.43016052246094 49.06309509277344
65.8337631225586 52.901363372802734 47.69475555419922
66.4959945678711 52.466617584228516 48.52203369140625
66.016845703125 54.689029693603516 46.339866638183594
65.96073913574219 55.61395263671875 48.16948318481445
65.92545318603516 53.28996276855469 49.46803283691406
66.48115539550781 51.4437255859375 47.176551818847656
65.6791763305664 51.772430419921875 48.47570037841797
66.7479248046875 53.965309143066406 46.82836151123047
64.76290130615234 54.230224609375 46.912445068359375
66.35982513427734 53.339759826660156 49.17411422729492
64.3618392944336 52.018836975097656 47.02701950073242
63.344993591308594 52.23173141479492 47.456729888916016
63.40540313720703 51.065948486328125 48.442138671875
66.68877410888672 53.439178466796875 46.50359344482422
67.2013168334961 55.16425323486328 46.974212646484375
65.65702819824219 54.84368896484375 48.61932373046875
66.37240600585938 54.95037841796875 46.613128662109375
64.30445861816406 53.96022415161133 47.9326171875
64.9737319946289 55.311988830566406 46.78831100463867
64.11982727050781 52.65059280395508 46.37117385864258
66.01174926757812 54.46091079711914 49.69902038574219
66.27604675292969 52.805076599121094 48.66645431518555
66.72591400146484 56.05937957763672 47.113739013671875
64.37046813964844 53.26388168334961 48.137325286865234
65.74153900146484 54.24810791015625 49.469608306884766
67.2962417602539 54.861202239990234 46.87030029296875
65.57083129882812 54.23031234741211 49.10279846191406
64.78765869140625 54.52311325073242 46.64394760131836
65.62730407714844 53.82175064086914 49.27294158935547
67.58686828613281 55.552825927734375 47.16537094116211
64.602294921875 55.17994689941406 47.735313415527344
66.79503631591797 53.8550910949707 49.233116149902344
64.73088836669922 54.70224380493164 49.12801742553711
65.45821380615234 50.89344024658203 47.35771560668945
65.03485107421875 56.274330139160156 47.39750671386719
64.03376007080078 52.799072265625 46.80809783935547
65.97553253173828 52.03422164916992 46.58877944946289
68.02359771728516 55.23654556274414 47.8234748840332
64.04566192626953 53.92856979370117 48.630027770996094
63.98443603515625 52.802433013916016 46.19915008544922
65.30876159667969 55.03882598876953 49.56980514526367
65.43634033203125 52.16987609863281 47.55523681640625
64.95939636230469 54.167598724365234 46.34526824951172
64.26155090332031 54.10698318481445 47.40034103393555
64.24095153808594 54.7846794128418 47.805023193359375
66.69876861572266 55.62903594970703 47.39929962158203
65.48957061767578 52.34702682495117 46.2162971496582
67.07527923583984 55.31417465209961 46.99352264404297
67.4848861694336 54.351322174072266 47.75849533081055
65.71036529541016 51.928340911865234 48.800994873046875
64.60527801513672 54.253395080566406 48.01980972290039
64.7245864868164 55.64879608154297 47.247352600097656
66.3656997680664 53.5922966003418 49.43571090698242
67.30390167236328 53.86471176147461 48.155296325683594
66.80198669433594 54.72629928588867 46.45161819458008
65.94457244873047 53.362648010253906 49.333824157714844
66.19054412841797 52.41922378540039 47.7476692199707
63.691795349121094 51.76640319824219 48.571231842041016
65.44548797607422 54.122371673583984 46.5527458190918
65.11905670166016 52.53843688964844 49.25376510620117
66.39848327636719 54.47007369995117 49.26340103149414
66.65762329101562 53.823341369628906 49.42151641845703
63.12914276123047 50.69880294799805 48.45592498779297
67.39462280273438 54.30628967285156 47.021034240722656
64.84465789794922 52.752586364746094 48.383201599121094
65.9119873046875 53.30158233642578 48.93419647216797
64.91492462158203 52.892154693603516 49.11970901489258
65.65896606445312 52.82742691040039 49.18337631225586
64.8235855102539 54.88029098510742 47.6920166015625
65.48506164550781 52.28484344482422 47.94084167480469
66.44469451904297 51.467674255371094 47.6464729309082
64.17662811279297 53.24767303466797 46.71275329589844
65.10041809082031 54.82887649536133 46.939666748046875
66.49630737304688 53.891326904296875 49.07997512817383
64.01808166503906 53.585174560546875 48.547245025634766
66.36425018310547 56.211334228515625 46.67607879638672
63.97063446044922 53.62010192871094 46.7655143737793
65.97775268554688 51.90748596191406 48.33137512207031
62.86997604370117 51.0880241394043 48.12670135498047
65.69947814941406 56.14365005493164 46.972312927246094
66.32610321044922 53.7708625793457 48.60136795043945
66.38488006591797 52.6851921081543 46.29659652709961
65.80514526367188 53.67582702636719 46.07125473022461
66.09086608886719 52.490413665771484 46.4940185546875
66.70466613769531 55.55577850341797 50.03948211669922
65.77587890625 52.96877670288086 46.391605377197266
66.63932800292969 52.1681022644043 47.06229782104492
66.49567413330078 53.26261520385742 48.20487976074219
66.93824005126953 53.96162033081055 48.860538482666016
66.14925384521484 53.69797134399414 46.18489456176758
63.843963623046875 52.357818603515625 48.747127532958984
66.55481719970703 53.580936431884766 49.19126510620117
67.33058166503906 53.93618392944336 47.653297424316406
64.68069458007812 55.69183349609375 47.57057571411133
65.62833404541016 53.781044006347656 49.55409622192383
63.392250061035156 52.353973388671875 48.406558990478516
64.39801788330078 54.06097412109375 46.91746139526367
66.59269714355469 54.05691146850586 46.346065521240234
65.14986419677734 55.442508697509766 49.003971099853516
64.31063079833984 54.49847412109375 46.910770416259766
65.89076232910156 53.108585357666016 45.892330169677734
65.42798614501953 54.13272476196289 48.57389450073242
66.32080078125 52.720008850097656 48.96091842651367
67.09021759033203 53.73571014404297 48.881370544433594
64.6831283569336 54.85704040527344 48.765140533447266
65.43961334228516 55.52487564086914 47.0283317565918
66.45333099365234 54.48037338256836 46.800437927246094
66.3719711303711 52.19918441772461 48.47303771972656
66.53327941894531 55.28127670288086 46.79970169067383
64.69783020019531 54.3692741394043 49.07871627807617
66.49296569824219 54.37364196777344 48.27415466308594
66.17589569091797 52.43491744995117 47.350120544433594
64.24150848388672 53.38745880126953 48.9324951171875
66.56983184814453 54.008541107177734 49.5008544921875
65.36643981933594 56.22175979614258 47.89594268798828
66.5869140625 55.480873107910156 49.92793273925781
65.03077697753906 53.43803405761719 48.01902389526367
64.05464935302734 50.6923713684082 48.677730560302734
65.82992553710938 55.04254913330078 46.52923583984375
64.48171997070312 54.69544219970703 48.70400619506836
66.42185974121094 54.5627555847168 49.7259521484375
65.03712463378906 52.92692947387695 46.56687927246094
64.2222900390625 54.61415100097656 47.44035720825195
65.94044494628906 52.4654426574707 45.9128303527832
66.06354522705078 53.59089660644531 46.73053741455078
64.91771697998047 51.59442901611328 47.18233108520508
66.73223876953125 54.20869827270508 49.37154769897461
64.89633178710938 54.990074157714844 49.1140022277832
64.38481140136719 53.718658447265625 48.96380615234375
65.37895202636719 55.548858642578125 48.35342788696289
67.21142578125 55.34408950805664 48.99843215942383
66.63906860351562 54.9621467590332 47.071937561035156
64.92642211914062 51.46354293823242 48.80426025390625
65.93499755859375 53.14412307739258 49.055484771728516
65.1102066040039 51.9829216003418 49.17674255371094
63.520320892333984 50.99452590942383 48.60373306274414
64.42081451416016 54.620025634765625 48.82157897949219
66.74774169921875 53.67596435546875 46.53193664550781
63.257198333740234 52.27122497558594 46.95479965209961
66.79383087158203 53.44985580444336 48.457244873046875
64.37560272216797 53.36293411254883 46.60108947753906
66.72000122070312 53.14292526245117 48.924278259277344
64.4872055053711 55.17399978637695 48.477848052978516
66.43629455566406 52.09564208984375 46.50029373168945
66.30850219726562 53.75444412231445 47.282806396484375
66.37738037109375 55.981658935546875 46.74886703491211
65.04253387451172 54.829647064208984 48.15024185180664
65.83129119873047 53.408058166503906 49.471099853515625
66.34677124023438 53.189369201660156 48.95834732055664
62.98107147216797 51.67437744140625 48.06184005737305
64.42723846435547 52.14744186401367 48.56368637084961
64.5652847290039 54.2749137878418 47.587982177734375
65.83695220947266 53.73115921020508 46.333160400390625
64.87848663330078 55.428863525390625 48.87578582763672
66.72710418701172 55.74283981323242 46.90025329589844
65.46289825439453 54.44414138793945 48.8249397277832
62.82879638671875 51.67783737182617 47.55580520629883
64.26551818847656 50.262516021728516 48.51736831665039
64.55901336669922 53.65034484863281 47.06414794921875
64.92687225341797 54.68687057495117 48.8345947265625
64.37960052490234 54.60597610473633 47.006492614746094
64.1447982788086 51.21807861328125 48.777889251708984
66.03669738769531 51.26217269897461 46.928314208984375
65.73892211914062 56.32089614868164 47.2932014465332
63.9788818359375 52.3616828918457 47.78105163574219
64.38007354736328 54.58427047729492 47.57592010498047
63.8371696472168 51.86243438720703 48.66834259033203
64.53826904296875 50.90432357788086 48.47173309326172
66.33998107910156 52.76070785522461 46.66410446166992
64.61103820800781 54.81839370727539 47.459781646728516
67.21369171142578 54.18901443481445 46.79697036743164
63.858070373535156 52.59864807128906 47.13825607299805
63.99610137939453 52.34672927856445 46.120330810546875
66.19406127929688 51.88444900512695 46.532955169677734
66.02862548828125 54.823974609375 46.31327819824219
66.65437316894531 53.09454345703125 46.75828552246094
64.39566802978516 52.74247360229492 49.03406524658203
65.10613250732422 54.074275970458984 46.22486114501953
66.98545837402344 53.591644287109375 49.02108383178711
64.2139892578125 52.309593200683594 48.299659729003906
65.92342376708984 51.80754089355469 46.89357376098633
66.59385681152344 54.09001541137695 46.579715728759766
64.69452667236328 54.14984130859375 46.6053352355957
65.97061920166016 54.060691833496094 49.06208801269531
67.15392303466797 55.371097564697266 47.961036682128906
64.3244400024414 51.752685546875 48.687416076660156
67.04200744628906 54.678192138671875 47.10151290893555
64.43834686279297 54.024192810058594 49.126888275146484
64.90074920654297 54.53003692626953 48.728858947753906
66.43400573730469 55.03950119018555 48.990779876708984
65.82566833496094 55.890140533447266 49.36353302001953
65.63794708251953 55.02701950073242 49.67318344116211
64.67422485351562 54.98163604736328 48.88010787963867
66.60930633544922 55.3695182800293 48.7052116394043
67.62852478027344 54.867637634277344 48.465816497802734
65.54877471923828 52.18899154663086 49.118350982666016
66.56417083740234 52.724945068359375 46.453731536865234
67.2192611694336 54.20383834838867 49.331642150878906
68.12654113769531 55.118385314941406 48.03783416748047
65.47146606445312 51.35617446899414 48.532997131347656
65.44495391845703 52.76161193847656 49.2515869140625
67.597412109375 54.25990295410156 48.681549072265625
66.48640441894531 55.05416488647461 46.50945281982422
64.21637725830078 54.439884185791016 48.25897216796875
65.0877456665039 51.87897491455078 49.030670166015625
64.84158325195312 55.572513580322266 48.42445755004883
64.47943878173828 55.30312728881836 47.91291427612305
66.30943298339844 55.5738410949707 47.56206512451172
67.36045837402344 54.87317657470703 47.71625900268555
64.06184387207031 53.71006393432617 46.64802169799805
65.56055450439453 54.922000885009766 46.42389678955078
66.62861633300781 52.12251663208008 46.82334518432617
67.51727294921875 55.583595275878906 48.39602279663086
64.85724639892578 54.575767517089844 48.36827850341797
65.67700958251953 55.870513916015625 46.749637603759766
64.36062622070312 51.83388900756836 47.19676971435547
65.85466003417969 52.713558197021484 46.54749298095703
66.63255310058594 54.02958297729492 49.30937957763672
67.04717254638672 54.872535705566406 49.59202575683594
66.60867309570312 52.09953689575195 47.87821578979492
64.36182403564453 53.56496810913086 48.49666976928711
63.64052200317383 52.229610443115234 48.673133850097656
64.9954605102539 55.081031799316406 46.63956832885742
67.10462188720703 53.60873031616211 48.50904083251953
66.67453002929688 53.9168701171875 47.74119567871094
65.26231384277344 51.07426071166992 48.548126220703125
64.68872833251953 55.14071273803711 47.14507293701172
66.49076080322266 52.102378845214844 46.59942626953125
64.73111724853516 52.7357292175293 46.148807525634766
65.07543182373047 56.538604736328125 47.409305572509766
64.63719940185547 54.74812698364258 47.01655197143555
67.08985137939453 54.12860107421875 47.70241928100586
67.69034576416016 54.958560943603516 49.02933120727539
65.69547271728516 53.25305938720703 47.53028106689453
66.88599395751953 52.770416259765625 46.86846923828125
64.97091674804688 55.8974723815918 49.19440841674805
65.09225463867188 54.887664794921875 47.168235778808594
66.21586608886719 53.30618667602539 48.820404052734375
67.96621704101562 55.09056854248047 47.64308547973633
66.593505859375 52.117164611816406 47.552734375
66.07648468017578 53.75146484375 49.18300247192383
67.3486328125 53.57551956176758 47.236534118652344
64.7776107788086 55.72307205200195 47.817142486572266
66.22722625732422 54.67203903198242 46.688514709472656
66.31792449951172 53.36201477050781 46.10584259033203
66.90939331054688 54.17964553833008 46.60490036010742
64.62747955322266 55.45013427734375 48.27219009399414
65.76644897460938 54.749237060546875 46.740108489990234
65.52422332763672 53.14051818847656 49.418861389160156
65.07706451416016 53.47615432739258 48.31870651245117
63.649932861328125 53.120601654052734 47.16071319580078
66.1024398803711 52.38094711303711 48.033565521240234
66.94740295410156 55.19489288330078 47.506256103515625
66.43042755126953 52.31363296508789 46.53028106689453
66.06494140625 52.746463775634766 49.06330108642578
66.15370178222656 53.9088249206543 47.90559005737305
65.99722290039062 55.13323974609375 49.51174545288086
64.61054229736328 52.7388801574707 48.799644470214844
66.60230255126953 53.520225524902344 46.83467483520508
66.76972961425781 55.23343276977539 48.28855514526367
66.25138092041016 53.34755325317383 46.063072204589844
65.46784210205078 55.51741409301758 46.59651184082031
65.73370361328125 51.156402587890625 48.0985107421875
64.59526062011719 55.0332145690918 46.985443115234375
66.05471801757812 51.210384368896484 46.831363677978516
66.10585021972656 53.55668258666992 49.25327682495117
66.28390502929688 53.37081527709961 49.351097106933594
62.82445526123047 51.75822067260742 47.67441940307617
63.187767028808594 50.93566131591797 48.35896301269531
66.58734893798828 52.24856185913086 47.18074417114258
66.65706634521484 53.44778823852539 48.83761215209961
64.80254364013672 52.316993713378906 48.44999313354492
64.46646881103516 53.41228103637695 48.92240905761719
64.79228210449219 55.33863067626953 48.27980422973633
68.22509002685547 51.281158447265625 40.012420654296875
67.23888397216797 51.251399993896484 39.849517822265625
66.72076416015625 49.68850326538086 40.317588806152344
67.94214630126953 51.722145080566406 39.82675552368164
68.51907348632812 54.12473678588867 40.621910095214844
67.340576171875 51.5936279296875 40.714176177978516
69.3931884765625 54.55813980102539 41.36972427368164
69.30457305908203 52.75465393066406 41.16423034667969
66.0064926147461 50.229000091552734 40.14569854736328
67.75692749023438 53.1498908996582 40.63565444946289
70.92073822021484 53.909122467041016 41.2883415222168
68.22178649902344 51.23584747314453 40.106754302978516
68.4243392944336 53.95635986328125 40.143463134765625
67.9416275024414 51.20914077758789 40.08523941040039
69.97085571289062 53.687355041503906 39.85971450805664
70.6597900390625 53.520118713378906 40.66828918457031
66.10569763183594 51.05553436279297 40.073097229003906
68.5548095703125 52.64368438720703 41.498775482177734
69.44065856933594 54.81813430786133 40.97652816772461
68.38407135009766 52.32167053222656 41.44122314453125
69.4669418334961 53.56285095214844 41.636505126953125
70.4222183227539 54.412261962890625 40.5814323425293
69.0981674194336 52.030731201171875 39.99030303955078
67.12971496582031 51.47322082519531 39.828060150146484
69.94093322753906 53.22397232055664 41.042701721191406
68.3756103515625 51.74160385131836 40.219322204589844
68.97132873535156 52.69688415527344 40.77912521362305
66.26179504394531 51.2623176574707 40.061248779296875
68.8625259399414 53.1287727355957 39.59843444824219
65.88505554199219 51.443599700927734 41.08213424682617
68.74039459228516 52.766082763671875 41.03810501098633
68.6746826171875 52.27885055541992 41.69118881225586
66.68428802490234 51.904380798339844 41.42155456542969
68.36505889892578 51.767250061035156 40.0798454284668
70.3486557006836 53.74639129638672 39.78422927856445
67.26573181152344 52.72250747680664 41.064327239990234
68.54444122314453 51.29022979736328 40.29137420654297
69.12174224853516 53.58903121948242 39.74650955200195
70.19281768798828 53.04693603515625 40.14151382446289
67.57046508789062 50.85887908935547 41.7017936706543
68.08566284179688 51.75641632080078 41.640899658203125
66.19950103759766 50.981014251708984 40.7282829284668
67.10540771484375 51.15111541748047 40.066864013671875
69.36978149414062 52.60094451904297 41.328468322753906
69.5071029663086 53.8841552734375 41.1258544921875
67.51075744628906 51.755096435546875 41.8272590637207
70.21341705322266 54.33367919921875 40.3069953918457
70.63880157470703 53.81132888793945 40.40141677856445
65.59309387207031 50.936092376708984 40.7001838684082
65.64472198486328 51.208229064941406 40.691551208496094
70.22236633300781 53.63329315185547 41.33518981933594
68.93140411376953 52.77823257446289 39.648033142089844
68.48004913330078 53.206424713134766 41.551082611083984
67.93058013916016 52.12607192993164 39.69055938720703
70.07708740234375 54.81145095825195 41.43408203125
67.88726806640625 50.67597579956055 40.18308639526367
66.81394958496094 52.08515930175781 41.33778381347656
69.26907348632812 54.4722785949707 40.375396728515625
67.20674896240234 52.70349884033203 40.396820068359375
66.55992889404297 51.875518798828125 40.782752990722656
66.49392700195312 49.94062805175781 40.16547775268555
66.1152572631836 51.46808624267578 41.083683013916016
66.36283874511719 51.72825241088867 40.2874641418457
70.11678314208984 54.60933303833008 41.180755615234375
67.03166198730469 49.6405029296875 41.344818115234375
66.90975189208984 51.133811950683594 39.872379302978516
65.76405334472656 50.61357116699219 40.237945556640625
69.0825424194336 51.90072250366211 40.58658981323242
67.95579528808594 51.7661018371582 41.743953704833984
67.07951354980469 52.311988830566406 41.084083557128906
65.626220703125 51.15756607055664 41.087158203125
70.62921905517578 53.5599250793457 40.35867691040039
70.34558868408203 54.379188537597656 40.89311599731445
66.3358154296875 51.825130462646484 40.47574996948242
68.90137481689453 52.941200256347656 41.481170654296875
67.51732635498047 50.078521728515625 40.59413146972656
68.2216796875 53.392608642578125 39.97235870361328
66.47481536865234 50.60668182373047 40.392539978027344
65.52496337890625 51.103118896484375 40.79184341430664
68.09246063232422 53.16324996948242 40.143402099609375
69.23627471923828 52.015689849853516 40.23928451538086
67.78316497802734 50.836246490478516 41.08110809326172
69.66361236572266 53.63124465942383 41.60652542114258
68.96107482910156 54.48432540893555 40.60443115234375
68.965087890625 52.250789642333984 40.075843811035156
68.34442901611328 51.00830078125 40.295257568359375
66.04911041259766 50.706031799316406 40.022525787353516
67.36563873291016 51.65501022338867 41.274452209472656
70.55889892578125 53.30683517456055 40.22179412841797
66.81891632080078 52.23238754272461 41.01620101928711
67.18757629394531 52.19277572631836 41.57524108886719
66.0730972290039 51.47079086303711 41.380611419677734
66.77694702148438 52.25369644165039 40.462547302246094
65.7042007446289 51.241912841796875 40.52800750732422
67.06395721435547 52.65533447265625 40.584007263183594
68.40377044677734 53.71560287475586 39.89479446411133
69.79371643066406 55.1257209777832 41.282222747802734
69.01077270507812 51.62583923339844 40.3961067199707
68.0365219116211 50.9080810546875 40.044776916503906
69.66160583496094 52.49580001831055 40.167518615722656
70.8812484741211 53.657962799072266 40.40910339355469
69.1976547241211 54.367435455322266 40.60837173461914
66.88877868652344 49.43944549560547 41.1287841796875
67.59650421142578 52.10507583618164 39.836307525634766
67.54349517822266 51.203182220458984 40.63022232055664
67.7830810546875 52.95207977294922 40.12955856323242
67.12908935546875 52.168853759765625 40.1353759765625
66.5029296875 49.5451774597168 40.52463912963867
69.32825469970703 54.04636001586914 39.68326187133789
67.49419403076172 50.367584228515625 40.450504302978516
66.9931869506836 52.43169403076172 40.221458435058594
67.61872863769531 50.36979675292969 40.677249908447266
68.41934204101562 51.12965774536133 40.437744140625
68.01077270507812 53.34177780151367 40.11697769165039
68.06664276123047 52.20330047607422 41.04884719848633
67.77346801757812 52.63818359375 41.10258102416992
68.27302551269531 53.392295837402344 40.37183380126953
70.28431701660156 54.4208984375 40.276611328125
65.89801788330078 51.38119125366211 41.27945327758789
66.72144317626953 51.95709228515625 41.073463439941406
68.6728515625 52.96674346923828 41.71874237060547
