9.814327239990234 161.6962127685547 69.90755462646484
9.00780963897705 164.45948791503906 69.90584564208984
8.992733001708984 163.21263122558594 69.85394287109375
8.923626899719238 169.75830078125 70.83880615234375
9.845190048217773 169.72708129882812 70.7929458618164
9.179941177368164 168.3161163330078 71.59750366210938
9.926769256591797 167.2084197998047 70.7770004272461
9.028139114379883 169.81137084960938 71.61322784423828
8.924397468566895 165.78672790527344 70.85706329345703
9.188837051391602 166.02023315429688 71.57769775390625
9.166476249694824 169.59152221679688 70.02560424804688
9.012969970703125 168.29156494140625 70.81038665771484
9.185464859008789 167.2058868408203 69.90454864501953
9.241418838500977 167.1041259765625 71.57736206054688
9.744948387145996 168.22320556640625 70.0050277709961
8.919610023498535 167.02188110351562 70.7576675415039
9.756591796875 166.91555786132812 69.96070861816406
9.090556144714355 168.5229949951172 69.95674133300781
9.907914161682129 168.47470092773438 70.8145523071289
8.710441589355469 173.72833251953125 70.01519775390625
9.688469886779785 173.25 70.86837768554688
8.940593719482422 172.22454833984375 70.82526397705078
9.088842391967773 170.81961059570312 70.034423828125
8.9340181350708 170.98867797851562 70.81163024902344
8.180083274841309 170.25 70.82547760009766
8.108939170837402 172.23582458496094 70.83485412597656
8.958285331726074 170.9662322998047 71.6210708618164
8.046947479248047 173.72430419921875 70.8043212890625
8.146366119384766 171.0255126953125 70.94074249267578
8.73249340057373 174.75 70.02732849121094
9.781739234924316 170.94873046875 70.79044342041016
9.745001792907715 172.1236114501953 70.91630554199219
8.927318572998047 173.7268524169922 70.79788208007812
8.920707702636719 172.17352294921875 70.0569839477539
8.924528121948242 172.20486450195312 71.66046905517578
8.882585525512695 173.70594787597656 71.6097412109375
8.86894416809082 174.9851531982422 71.65421295166016
8.7946195602417 178.86216735839844 71.94024658203125
8.894371032714844 176.22210693359375 71.71675109863281
8.876079559326172 175.11502075195312 70.85006713867188
8.152865409851074 175.2847900390625 71.57801818847656
8.818988800048828 178.8260955810547 70.93180847167969
8.069978713989258 177.727294921875 71.69979095458984
8.12280559539795 176.2283477783203 71.63076782226562
8.954814910888672 176.31419372558594 70.75599670410156
8.892374038696289 177.71653747558594 71.79153442382812
8.912562370300293 177.54212951660156 70.87796020507812
8.032474517822266 174.9488525390625 70.83883666992188
8.000261306762695 178.98788452148438 71.08416748046875
8.03833293914795 176.2273712158203 70.85607147216797
8.01171875 177.6461639404297 70.99287414550781
8.037302017211914 178.99790954589844 71.73954010009766
8.03100872039795 181.49087524414062 71.12400817871094
8.812695503234863 180.21469116210938 71.92533874511719
8.884147644042969 182.72027587890625 71.08792877197266
8.8660306930542 180.15110778808594 70.95120239257812
8.071552276611328 181.51229858398438 71.92505645751953
8.888830184936523 182.728515625 71.98939514160156
8.899219512939453 181.476318359375 71.06867218017578
8.025263786315918 180.22760009765625 71.76686096191406
8.887784957885742 181.4672088623047 71.97087860107422
8.040251731872559 182.739501953125 71.94393920898438
8.046104431152344 182.7058868408203 71.12921142578125
8.014299392700195 180.22967529296875 71.0892562866211
8.03623104095459 184.1082763671875 71.23854064941406
8.828813552856445 187.975341796875 71.9713363647461
8.944576263427734 186.7507781982422 72.0812759399414
8.749486923217773 188.07859802246094 71.17105865478516
7.995979309082031 186.7516326904297 72.00748443603516
8.796990394592285 185.46568298339844 71.1655502319336
8.892901420593262 184.22390747070312 72.01472473144531
7.900509834289551 188.23159790039062 71.955322265625
8.783173561096191 186.7112274169922 71.17501068115234
7.999051094055176 188.22940063476562 71.20905303955078
8.829667091369629 185.6529541015625 72.09326171875
8.033352851867676 184.24717712402344 71.98084259033203
8.832222938537598 184.18919372558594 71.12262725830078
8.021208763122559 186.75242614746094 71.3215560913086
8.038202285766602 185.47573852539062 71.32664489746094
8.02073860168457 185.4914093017578 71.986572265625
8.555706977844238 193.22860717773438 70.90623474121094
7.746217727661133 192.02459716796875 70.88046264648438
7.818078994750977 190.65562438964844 71.85200500488281
8.563945770263672 191.91030883789062 71.66695404052734
8.375675201416016 192.72244262695312 71.64891815185547
7.755357265472412 191.98080444335938 71.69099426269531
8.61381721496582 190.76295471191406 71.03235626220703
8.567633628845215 190.64337158203125 71.85945129394531
7.94509220123291 193.1619873046875 71.61592864990234
8.570058822631836 191.97671508789062 70.93626403808594
8.637456893920898 189.3290557861328 71.11595153808594
7.708108901977539 193.2451171875 70.82313537597656
7.795632362365723 189.37669372558594 71.88815307617188
7.810755252838135 190.79725646972656 70.97034454345703
8.640891075134277 189.3406982421875 71.97860717773438
7.803462505340576 189.35548400878906 71.15890502929688
7.7259650230407715 194.73724365234375 70.79418182373047
8.570576667785645 196.10765075683594 70.67425537109375
7.724301815032959 196.0508575439453 70.77116394042969
8.08387279510498 197.129150390625 69.99124908447266
8.503790855407715 197.29705810546875 70.7336196899414
7.677567005157471 197.24658203125 70.75892639160156
7.932993412017822 194.74874877929688 69.96964263916016
8.472402572631836 194.67758178710938 70.71468353271484
7.828751087188721 196.11524963378906 69.9825210571289
7.971615791320801 193.96466064453125 70.00003051757812
8.341198921203613 195.75 69.97319793701172
7.693875312805176 198.6294708251953 70.79296875
7.960762977600098 199.75230407714844 70.06083679199219
8.475982666015625 198.67132568359375 70.75091552734375
7.70602560043335 199.96124267578125 70.80549621582031
7.966505527496338 198.67852783203125 70.07486724853516
8.418566703796387 201.24057006835938 70.76178741455078
8.46349048614502 199.92813110351562 70.74531555175781
7.691748142242432 201.27813720703125 70.794677734375
7.717183589935303 202.4954376220703 70.7375259399414
8.406109809875488 202.47442626953125 70.73574829101562
7.936026096343994 202.5323486328125 69.999755859375
7.9548540115356445 201.10592651367188 70.05728912353516
8.535378456115723 206.4917755126953 70.38733673095703
7.836182117462158 205.33534240722656 69.73629760742188
7.799431324005127 203.63844299316406 70.69591522216797
7.970423698425293 206.40907287597656 70.41551971435547
7.7554216384887695 205.1262664794922 70.4880599975586
8.488924980163574 203.79330444335938 70.50074768066406
8.573433876037598 205.30902099609375 70.45333862304688
8.35491943359375 203.781005859375 69.89482116699219
7.756640911102295 203.770751953125 69.87586212158203
8.595195770263672 206.55967712402344 69.6363525390625
7.800278186798096 206.62803649902344 69.7923583984375
8.511627197265625 205.43505859375 69.71715545654297
7.960529804229736 211.75816345214844 69.4661865234375
8.569921493530273 209.22879028320312 69.58348083496094
7.9372663497924805 207.51254272460938 70.24496459960938
7.907122611999512 209.048828125 69.53643798828125
8.619925498962402 210.42103576660156 69.38910675048828
8.626462936401367 207.8311309814453 69.66978454589844
7.853191375732422 207.808349609375 69.67987823486328
8.645352363586426 211.732666015625 69.38665008544922
7.955718517303467 210.27392578125 69.43311309814453
8.434890747070312 207.50830078125 70.30086517333984
7.9735870361328125 210.7575225830078 68.8565444946289
8.423465728759766 210.80506896972656 68.78335571289062
8.590740203857422 215.70294189453125 69.11842346191406
7.978671550750732 211.7740478515625 68.82088470458984
8.502659797668457 211.97525024414062 68.73155212402344
7.990228652954102 214.2802276611328 68.5965347290039
8.617324829101562 214.26866149902344 69.23400115966797
8.634324073791504 215.78390502929688 68.43638610839844
8.623899459838867 214.28480529785156 68.58728790283203
8.003246307373047 215.75791931152344 68.55917358398438
8.040627479553223 212.98277282714844 69.42593383789062
8.559050559997559 213.005859375 69.39606475830078
8.600664138793945 213.0485382080078 68.64421081542969
8.110268592834473 215.6432342529297 69.0967788696289
8.021807670593262 213.03363037109375 68.65290069580078
7.9948201179504395 214.25885009765625 69.21549224853516
8.674803733825684 218.2682647705078 68.32034301757812
8.667890548706055 219.7418212890625 68.35053253173828
8.64159870147705 216.92398071289062 68.37535858154297
8.13872241973877 219.40670776367188 68.38005065917969
8.102910041809082 217.1143341064453 68.30610656738281
8.126017570495605 218.3533935546875 68.3563003540039
8.501811981201172 216.75 69.05377960205078
65.6699447631836 36.92794418334961 49.55623245239258
64.86865997314453 37.09797668457031 49.380558013916016
64.42477416992188 38.21826171875 48.15093231201172
64.72600555419922 39.55911636352539 49.54666519165039
64.66604614257812 37.16408920288086 46.788204193115234
64.62155151367188 40.41983413696289 50.65533447265625
62.39558792114258 39.583927154541016 49.39506530761719
62.2083740234375 38.72734832763672 48.23495101928711
63.941551208496094 37.52617645263672 47.004791259765625
63.412715911865234 39.605995178222656 49.567378997802734
63.27423095703125 38.436649322509766 48.1755256652832
60.62401580810547 39.75221633911133 46.77732849121094
63.60160446166992 38.14519500732422 47.13496017456055
64.46159362792969 37.51399612426758 48.39687728881836
64.62176513671875 38.163597106933594 46.74038314819336
61.999935150146484 40.72431564331055 48.14042663574219
63.400787353515625 39.56825637817383 48.20417022705078
63.35471725463867 38.587398529052734 49.52132034301758
64.48802185058594 39.63199996948242 50.94346237182617
64.3769302368164 40.45943069458008 49.65253448486328
63.31682205200195 40.43027114868164 49.523406982421875
63.519065856933594 39.51650619506836 50.463218688964844
65.87831115722656 38.45267868041992 50.932003021240234
61.964820861816406 39.6396598815918 46.824249267578125
65.69351196289062 37.05118942260742 46.50616455078125
65.52484130859375 39.43785858154297 49.683555603027344
62.006004333496094 39.58893966674805 48.273780822753906
62.60922622680664 38.74227523803711 49.20613098144531
64.63434600830078 38.44828414916992 50.79725646972656
62.84859848022461 40.45258331298828 47.099822998046875
66.12664794921875 36.525794982910156 50.66064453125
64.51657104492188 38.328853607177734 49.50390625
64.91926574707031 37.05260467529297 45.80282974243164
64.3392105102539 39.441383361816406 48.44557571411133
65.3640365600586 38.71821594238281 49.83283996582031
60.85602951049805 40.729618072509766 47.806602478027344
63.18738555908203 39.57164764404297 47.23892593383789
61.53660583496094 40.06333923339844 45.81650161743164
62.14072799682617 38.7982063293457 47.4249153137207
60.94987869262695 39.6969108581543 47.907798767089844
65.55015563964844 37.694122314453125 46.281070709228516
65.9691390991211 36.13277816772461 49.813228607177734
63.349639892578125 40.516380310058594 48.4074821472168
63.70158767700195 38.665313720703125 50.398406982421875
66.23896026611328 36.01295471191406 50.6954231262207
61.91096878051758 40.97275924682617 46.866539001464844
62.349369049072266 40.43516540527344 49.13637161254883
69.3079833984375 38.78656005859375 53.99738311767578
67.58070373535156 40.44756317138672 54.25524139404297
64.9384994506836 38.70363998413086 51.837799072265625
68.53299713134766 38.662925720214844 53.51605224609375
68.5428237915039 39.53807067871094 54.84030532836914
65.95812225341797 39.61894226074219 52.300636291503906
67.03985595703125 39.43243408203125 51.21918487548828
66.0075912475586 39.609046936035156 50.783958435058594
67.18449401855469 39.65985107421875 53.53511047363281
66.92431640625 36.480106353759766 50.796627044677734
65.75499725341797 40.39665985107422 51.01921463012695
69.47694396972656 40.468849182128906 53.922760009765625
66.560546875 38.61408996582031 53.04944610595703
67.40294647216797 39.58262252807617 52.144161224365234
69.57305908203125 39.64518737792969 53.772003173828125
67.1637954711914 40.45772171020508 53.42223358154297
68.25492095947266 39.59113693237305 52.5917854309082
67.65129089355469 39.642791748046875 54.48003387451172
67.3420639038086 38.64455795288086 53.667598724365234
68.41502380371094 40.51488494873047 53.5032844543457
66.88172149658203 38.67793655395508 51.353389739990234
66.0544662475586 38.45556640625 52.129295349121094
66.90653228759766 35.935420989990234 50.7972412109375
66.36639404296875 39.53684997558594 53.399070739746094
64.86712646484375 39.54125213623047 51.899681091308594
67.25426483154297 38.527889251708984 52.304935455322266
67.39456939697266 40.463592529296875 52.5042610168457
68.64364624023438 39.569480895996094 53.53188705444336
68.60548400878906 38.715145111083984 54.653839111328125
68.66504669189453 40.639930725097656 54.762542724609375
66.19648742675781 40.41498947143555 52.18573760986328
68.14884948730469 38.687767028808594 52.76917266845703
68.59677124023438 34.54324722290039 43.858192443847656
67.71531677246094 34.72888946533203 43.9847412109375
67.19197082519531 35.86188507080078 45.14868927001953
69.34278106689453 34.550331115722656 43.61332321166992
66.05143737792969 36.07539367675781 45.61709213256836
66.98860168457031 36.513885498046875 45.261993408203125
67.093017578125 36.507720947265625 44.68104934692383
67.67118072509766 34.71312713623047 43.4340934753418
66.3854751586914 36.572757720947266 44.54446029663086
65.93699645996094 36.86567687988281 45.48798751831055
66.29795837402344 35.85475158691406 44.56147003173828
67.45391845703125 35.60641098022461 44.25687026977539
68.84668731689453 34.246131896972656 42.888938903808594
68.49263763427734 35.22269058227539 43.19197463989258
67.64554595947266 35.25214385986328 43.40643310546875
68.47493743896484 35.32822036743164 44.0343132019043
72.56904602050781 32.012001037597656 41.34366989135742
70.02557373046875 34.02518844604492 41.93550109863281
70.00146484375 33.428565979003906 42.66083526611328
72.63459014892578 32.66252899169922 40.70939254760742
72.73188018798828 31.97178840637207 40.62356948852539
71.0999526977539 33.268592834472656 42.379302978515625
71.6290283203125 32.241302490234375 41.51145935058594
69.80103302001953 34.37620544433594 42.82653045654297
72.41107177734375 32.8295783996582 41.406131744384766
70.29671478271484 33.36187744140625 41.80579376220703
71.2728042602539 33.054420471191406 41.6542854309082
70.84159088134766 33.942970275878906 41.924415588378906
73.44377899169922 32.44634246826172 41.15052795410156
70.86421203613281 33.977317810058594 42.4310302734375
75.14308166503906 30.80499267578125 40.0107536315918
75.21501159667969 31.555110931396484 40.216983795166016
75.41612243652344 30.860483169555664 39.41805648803711
74.0780029296875 31.621496200561523 40.30310821533203
73.7364273071289 31.924360275268555 41.10795211791992
76.60026550292969 30.579267501831055 39.12842559814453
76.32110595703125 31.331560134887695 39.8282470703125
76.47366333007812 31.24047088623047 39.36314392089844
73.69026184082031 32.485687255859375 40.606285095214844
76.50929260253906 30.65118408203125 39.905574798583984
75.00898742675781 31.376724243164062 39.489898681640625
81.70509338378906 29.665430068969727 38.426551818847656
79.30855560302734 29.659507751464844 38.784385681152344
77.88031768798828 30.467695236206055 39.63140869140625
78.52845764160156 29.708513259887695 39.001224517822266
80.47111511230469 30.20097541809082 38.616703033447266
78.07041931152344 30.420530319213867 38.96476745605469
80.90239715576172 30.15810203552246 37.95096969604492
80.84656524658203 29.65688133239746 37.93620300292969
79.28214263916016 30.243480682373047 38.80098342895508
80.37564086914062 29.50397491455078 38.657039642333984
81.84761810302734 30.168365478515625 38.3746337890625
70.02578735351562 39.59303283691406 54.80628967285156
68.46195220947266 37.32509231567383 57.607933044433594
71.44969177246094 38.10430908203125 57.54706573486328
71.03421783447266 39.81672286987305 55.362060546875
69.886474609375 38.448524475097656 57.1469612121582
69.6220932006836 38.77677536010742 54.90126037597656
71.34814453125 39.57146453857422 56.28834915161133
70.05493927001953 40.77225875854492 56.18135070800781
71.17008209228516 39.74443817138672 57.49813461303711
71.19892120361328 40.87990951538086 57.690921783447266
71.64630126953125 41.1618537902832 58.39745330810547
70.9503173828125 38.6224365234375 56.603431701660156
72.37770080566406 39.95252227783203 57.51408004760742
69.99840545654297 39.516441345214844 56.21205139160156
70.30420684814453 39.70146942138672 57.17059326171875
72.20304870605469 39.97337341308594 56.64677810668945
71.3438949584961 40.84772491455078 56.32607650756836
69.84220886230469 38.4589729309082 56.45497512817383
72.33467864990234 40.82649612426758 56.6014518737793
71.0443344116211 40.61548614501953 55.455257415771484
69.90227508544922 40.69710922241211 54.97502136230469
68.90641021728516 39.635009765625 55.856842041015625
69.04993438720703 38.3322639465332 56.65376281738281
69.11663055419922 40.485870361328125 55.98152160644531
71.53219604492188 41.614192962646484 57.59184265136719
70.42730712890625 40.69540786743164 57.18617248535156
68.6146469116211 38.05927276611328 57.487300872802734
71.54769134521484 40.05085754394531 58.23112869262695
75.52021026611328 38.83245849609375 59.28813552856445
72.60328674316406 40.199806213378906 58.375450134277344
75.22538757324219 42.15805435180664 59.1017951965332
72.69864654541016 42.11385726928711 58.769775390625
75.32085418701172 43.2794189453125 59.19429397583008
75.29875183105469 42.185028076171875 60.13795852661133
75.19824981689453 43.56243133544922 60.289573669433594
75.44959259033203 39.50926971435547 59.84806442260742
74.31069946289062 43.208717346191406 60.07025146484375
75.15794372558594 40.87466049194336 58.92025375366211
75.21694946289062 39.72573471069336 58.86250686645508
74.13529968261719 43.13705062866211 59.160945892333984
75.92699432373047 41.582820892333984 59.41719055175781
72.6334228515625 41.924564361572266 57.54975128173828
73.77445220947266 41.38166427612305 59.69261932373047
72.74684143066406 40.92020034790039 57.52164840698242
76.5879135131836 38.283233642578125 59.35911178588867
72.52893829345703 40.972476959228516 58.71341323852539
75.75143432617188 38.650596618652344 59.721954345703125
74.04096221923828 42.41582489013672 58.75115966796875
74.03080749511719 41.04690170288086 58.774269104003906
73.93736267089844 40.988685607910156 57.827919006347656
74.40614318847656 40.0326042175293 58.7769889831543
75.32955169677734 41.24090576171875 59.86681365966797
74.05069732666016 42.20035934448242 59.94776916503906
73.14944458007812 41.26120376586914 59.591407775878906
73.6607894897461 42.04251480102539 57.74736404418945
73.0863037109375 41.832374572753906 59.6257209777832
76.2491226196289 39.38219451904297 59.20121765136719
76.88985443115234 44.88995361328125 62.40262985229492
77.0762710571289 37.36005401611328 60.05204772949219
76.44352722167969 43.70960998535156 61.43737030029297
75.66299438476562 44.63723373413086 61.41049575805664
76.54889678955078 44.883934020996094 61.522674560546875
77.34061431884766 44.117671966552734 60.82958984375
76.38206481933594 39.28386688232422 59.88753890991211
76.45135498046875 44.74318313598633 60.507259368896484
75.46479034423828 44.497798919677734 60.461578369140625
77.40708923339844 37.86686706542969 59.486778259277344
76.67254638671875 38.1908073425293 60.156341552734375
77.02822875976562 45.59321594238281 60.85835647583008
77.49063873291016 45.02178955078125 60.82084274291992
77.92139434814453 44.94800567626953 62.464080810546875
75.96543884277344 41.39399719238281 59.98521423339844
75.37642669677734 43.65336227416992 61.282249450683594
77.859619140625 44.9803466796875 61.52700424194336
76.43779754638672 43.650291442871094 60.28689193725586
76.02875518798828 42.23200988769531 60.1322021484375
77.60249328613281 38.15761184692383 60.12749099731445
75.74773406982422 42.81940460205078 61.09287643432617
77.50209045410156 44.17660903930664 61.529144287109375
76.30004119873047 48.47623825073242 64.33451080322266
76.85295104980469 45.85870361328125 61.58484649658203
79.26580810546875 46.60224914550781 63.61922836303711
76.88634490966797 47.36735916137695 63.13604736328125
78.95831298828125 48.088714599609375 64.86940002441406
80.5238265991211 48.856597900390625 64.27356719970703
75.44068145751953 48.80669021606445 64.68627166748047
80.53553009033203 48.7406005859375 63.25221252441406
78.316650390625 48.440185546875 64.52577209472656
75.35149383544922 48.78790283203125 65.44548034667969
76.102783203125 48.66769027709961 65.18801879882812
75.62891387939453 47.90303421020508 64.3686294555664
79.6015396118164 48.76462173461914 65.30938720703125
76.98870849609375 46.15541458129883 62.758689880371094
79.66720581054688 48.43391036987305 63.148094177246094
80.36589050292969 48.90061569213867 65.58515167236328
79.91272735595703 46.66532897949219 63.25156021118164
80.41873168945312 47.76692581176758 63.95370864868164
78.00115203857422 47.592018127441406 64.14824676513672
75.5328140258789 48.14064025878906 65.27069091796875
78.02384185791016 47.19717025756836 62.962406158447266
77.97219848632812 46.14957046508789 62.84918975830078
79.19940948486328 46.24187469482422 62.82266616821289
76.50791931152344 47.61119079589844 64.20117950439453
78.62374877929688 46.85163497924805 61.99814987182617
79.32793426513672 47.5155143737793 62.87227249145508
79.12371826171875 47.693519592285156 64.20166015625
80.36151123046875 47.62118148803711 63.094932556152344
76.80751037597656 46.71782684326172 63.94770431518555
78.82758331298828 46.10769271850586 61.925106048583984
77.93797302246094 46.05445098876953 61.599021911621094
77.88328552246094 46.59803009033203 63.782958984375
79.32588195800781 48.4920539855957 64.36515808105469
76.29837799072266 47.98125076293945 65.05073547363281
84.47357177734375 51.57509231567383 64.35584259033203
84.65211486816406 52.66236114501953 65.2432861328125
80.55951690673828 49.74655532836914 65.688720703125
80.99329376220703 50.03843307495117 66.47711181640625
81.5907211303711 50.2424430847168 66.7096176147461
84.49854278564453 52.66389465332031 64.2625732421875
81.06915283203125 49.732234954833984 64.1846923828125
83.18063354492188 50.38160705566406 64.15357971191406
82.00354766845703 50.06357192993164 64.27995300292969
82.0906982421875 50.040565490722656 63.36748123168945
81.11399841308594 49.538536071777344 63.435218811035156
83.19495391845703 51.45947265625 64.283935546875
83.10507202148438 50.47244644165039 63.403106689453125
83.53221130371094 52.2977294921875 64.31280517578125
83.94221496582031 51.81993103027344 63.50554656982422
81.74433898925781 48.88279342651367 64.15458679199219
83.15412902832031 51.26804733276367 63.3797721862793
81.541748046875 48.793582916259766 63.418792724609375
81.53961944580078 50.065338134765625 66.17425537109375
82.29087829589844 50.99427795410156 64.02256774902344
83.97917175292969 51.663978576660156 65.02330780029297
74.29169464111328 49.83617401123047 65.70484161376953
72.51736450195312 51.5560188293457 68.24531555175781
73.56637573242188 51.070770263671875 67.8259506225586
74.95457458496094 49.20097351074219 66.42196655273438
73.97124481201172 50.1298828125 66.78230285644531
71.69389343261719 51.767765045166016 68.44060516357422
72.9892349243164 50.497222900390625 67.05014038085938
74.41012573242188 49.1600341796875 66.3769302368164
74.96209716796875 49.76778793334961 66.43994903564453
72.81795501708984 51.22290802001953 67.10426330566406
75.1334228515625 49.713134765625 65.7277603149414
73.75228881835938 51.08094024658203 66.94454193115234
72.15361022949219 52.53541564941406 69.15862274169922
74.35560607910156 49.12759017944336 65.64639282226562
72.33332061767578 52.437339782714844 68.34786224365234
72.91007232666016 50.66169738769531 67.85494232177734
73.50961303710938 50.60699462890625 67.76726531982422
69.60689544677734 54.50218200683594 71.67255401611328
69.02053833007812 54.42885208129883 71.10116577148438
69.67091369628906 55.03363037109375 71.67607116699219
71.27127075195312 52.73863983154297 69.63804626464844
69.63385772705078 55.21760940551758 71.1115951538086
69.11540985107422 54.462345123291016 71.6312484741211
70.00367736816406 54.101131439208984 70.72025299072266
70.1537857055664 53.97475814819336 69.894287109375
71.1177978515625 53.706329345703125 69.66161346435547
70.50952911376953 52.92621612548828 69.5976791381836
71.42668914794922 52.586978912353516 68.58440399169922
71.49456024169922 52.059120178222656 69.31688690185547
70.56372833251953 53.10100555419922 70.19512176513672
70.8042221069336 53.944908142089844 70.3982162475586
71.01123809814453 53.0777473449707 70.28356170654297
68.83600616455078 55.4730339050293 71.32322692871094
68.32176208496094 56.27498245239258 72.36846160888672
66.4468765258789 57.18965530395508 73.67017364501953
67.830810546875 55.803871154785156 73.08293914794922
66.27789306640625 57.83863067626953 73.78894805908203
68.62824249267578 55.504215240478516 72.12806701660156
66.87007141113281 57.803619384765625 74.46276092529297
68.16251373291016 56.4120979309082 73.1159439086914
66.31702423095703 57.28338623046875 74.44464874267578
67.6270523071289 56.528228759765625 72.60501861572266
67.11067199707031 57.52530288696289 73.41067504882812
67.24178314208984 56.869747161865234 73.4576187133789
67.62767791748047 55.77119445800781 72.634521484375
66.02318572998047 58.19681167602539 74.70541381835938
66.91059112548828 59.67506790161133 76.34519958496094
66.34193420410156 60.30293655395508 76.34117889404297
67.4946517944336 60.69055938720703 77.40980529785156
65.82746124267578 59.12406921386719 75.10784149169922
66.53119659423828 60.08092498779297 77.013427734375
65.17325592041016 58.448890686035156 74.9225082397461
67.09049224853516 60.422237396240234 76.46521759033203
65.99980926513672 59.258583068847656 76.04066467285156
65.23458099365234 58.87333679199219 74.8776626586914
68.39772033691406 61.19831085205078 77.64634704589844
69.63652038574219 63.024024963378906 79.54484558105469
67.63370513916016 61.639102935791016 77.64814758300781
69.91526794433594 63.19878005981445 78.84522247314453
68.25454711914062 61.77066421508789 77.63188171386719
70.30687713623047 64.10880279541016 78.80286407470703
69.37181091308594 62.267242431640625 78.7747573852539
68.21823120117188 61.14846420288086 78.27982330322266
70.80618286132812 63.60799789428711 78.79390716552734
69.04728698730469 63.002445220947266 78.8608627319336
68.69052124023438 61.984901428222656 78.72913360595703
67.65442657470703 61.58340072631836 78.228515625
72.1308822631836 65.00646209716797 77.38682556152344
72.6112289428711 66.11190032958984 76.45199584960938
73.39492797851562 66.31629180908203 75.9430160522461
71.5816879272461 65.54729461669922 77.30217742919922
72.86968994140625 66.89525604248047 75.99388885498047
72.37077331542969 65.73668670654297 77.1988754272461
71.11508178710938 64.46819305419922 78.4848861694336
71.20792388916016 64.72177124023438 77.65422058105469
89.45942687988281 52.436405181884766 62.681461334228516
88.09663391113281 55.28081130981445 64.47720336914062
85.90885925292969 54.05727767944336 64.55282592773438
86.3304443359375 55.055023193359375 65.52813720703125
87.35431671142578 55.194515228271484 64.32410430908203
87.00812530517578 54.263946533203125 65.59303283691406
85.89197540283203 53.04220199584961 65.27745056152344
89.97417449951172 51.420982360839844 63.90888977050781
85.90011596679688 54.07253646850586 65.5287857055664
84.95503997802734 53.68341064453125 65.2200698852539
87.21635437011719 55.28343963623047 65.63053894042969
87.08431243896484 54.117431640625 64.29666137695312
87.56233215332031 53.26816177368164 63.400550842285156
85.6249008178711 52.737266540527344 64.5374984741211
88.56622314453125 52.836151123046875 62.79618835449219
87.96562194824219 53.9970703125 64.01377868652344
87.3449935913086 55.470943450927734 66.48530578613281
87.51973724365234 56.13288116455078 65.75816345214844
90.246826171875 50.60148620605469 64.29985046386719
87.36468505859375 53.81841278076172 63.30013656616211
87.41735076904297 53.297828674316406 63.67848587036133
87.90937042236328 53.28533172607422 63.72078323364258
88.24014282226562 53.59882736206055 63.070556640625
88.96814727783203 51.907958984375 62.72575759887695
84.9335708618164 53.70748519897461 64.59375762939453
89.830322265625 51.577945709228516 63.092323303222656
89.72278594970703 56.97960662841797 67.07644653320312
89.9349594116211 58.07966995239258 68.1048355102539
91.8448715209961 49.85420608520508 65.06368255615234
87.69151306152344 56.29840850830078 66.54315185546875
91.8675537109375 50.07466125488281 64.83439636230469
88.43650817871094 55.59510803222656 65.43235778808594
88.55792236328125 56.59168243408203 66.7862548828125
88.92550659179688 57.51148986816406 67.66950225830078
89.8548583984375 57.119842529296875 67.91301727294922
89.84734344482422 57.932891845703125 67.30116271972656
88.83854675292969 56.88829040527344 67.72843170166016
88.86199188232422 57.544132232666016 67.06922149658203
88.38880920410156 56.38355255126953 65.8634262084961
88.35542297363281 55.59954833984375 66.65196228027344
91.32196044921875 50.061405181884766 65.26416778564453
91.04647827148438 50.22004318237305 64.44011688232422
90.73860931396484 51.0639533996582 64.27486419677734
91.50029754638672 60.23528289794922 68.3808364868164
93.67727661132812 62.05077362060547 68.6315689086914
93.0594711303711 62.77852249145508 68.6495590209961
91.09788513183594 59.24258804321289 68.25796508789062
91.66766357421875 60.112728118896484 69.12338256835938
90.97148132324219 58.25932693481445 68.29972839355469
91.62544250488281 59.43537902832031 69.02351379394531
92.09260559082031 59.46573257446289 68.33271026611328
92.46589660644531 60.685096740722656 69.15935516357422
92.70848083496094 61.85034942626953 68.51365661621094
92.02098846435547 59.753807067871094 69.11986541748047
92.80247497558594 61.95909881591797 69.1812515258789
90.77318572998047 58.49226760864258 67.488037109375
90.22196960449219 58.902748107910156 68.060546875
92.44485473632812 60.60408401489258 68.3876724243164
93.06340789794922 62.628753662109375 69.21729278564453
93.42190551757812 61.19353485107422 68.55845642089844
90.6708755493164 58.876136779785156 67.5212173461914
93.60906982421875 61.96870040893555 69.19141387939453
93.3680648803711 61.242252349853516 69.11093139648438
94.77687072753906 65.94303894042969 68.62336730957031
93.890869140625 64.54314422607422 68.58512878417969
93.9421615600586 64.531005859375 69.24751281738281
94.66503143310547 66.01783752441406 69.34851837158203
94.19763946533203 67.06417083740234 68.64359283447266
94.65572357177734 64.79820251464844 68.66204833984375
94.01020812988281 65.78715515136719 68.66043853759766
94.18551635742188 67.08292388916016 69.21823120117188
93.73979187011719 63.25349807739258 68.54537963867188
94.0679931640625 65.60704803466797 69.29466247558594
94.70869445800781 64.7646713256836 69.15626525878906
94.5239486694336 63.57972717285156 68.75682830810547
93.7771987915039 63.20485305786133 69.22862243652344
95.00334167480469 69.76316833496094 69.31640625
95.0178451538086 68.6604995727539 68.62129974365234
94.966064453125 69.81394958496094 68.642822265625
94.90447998046875 68.55524444580078 69.39215087890625
94.75508117675781 67.16124725341797 68.58507537841797
95.01306915283203 71.12883758544922 68.62754821777344
95.00857543945312 71.07095336914062 69.30117797851562
94.94493865966797 67.27898406982422 69.2945556640625
94.26083374023438 68.54695892333984 69.02025604248047
94.47224426269531 68.0369644165039 68.7686767578125
92.77224731445312 75.3560791015625 70.27851104736328
93.83552551269531 74.90802001953125 69.74869537353516
94.95545196533203 73.61442565917969 69.4078140258789
95.03997039794922 72.60125732421875 69.29737854003906
92.66851806640625 75.27902221679688 69.76663208007812
94.96773529052734 72.27114868164062 68.63018035888672
93.55532836914062 75.1095199584961 70.24910736083984
94.01905822753906 73.84977722167969 69.66716003417969
95.01118469238281 73.14806365966797 68.83158874511719
92.3224105834961 76.40644836425781 69.73594665527344
89.89295196533203 78.05859375 69.19021606445312
91.53914642333984 76.60454559326172 70.22080993652344
91.22383117675781 76.60140991210938 69.69248962402344
90.9846420288086 77.50003814697266 69.68082427978516
92.294677734375 76.36039733886719 70.23099517822266
78.35992431640625 36.07720184326172 60.417701721191406
77.99921417236328 37.078514099121094 60.31534194946289
83.34528350830078 35.55716323852539 56.47227478027344
83.01802062988281 35.289180755615234 57.31850051879883
82.19648742675781 32.278350830078125 59.12476348876953
79.286865234375 35.62965393066406 60.36155700683594
80.1956787109375 35.38298034667969 60.3033561706543
81.97089385986328 33.08415222167969 62.705543518066406
81.3465347290039 34.275691986083984 59.595298767089844
81.17573547363281 33.39154052734375 62.296661376953125
79.68354797363281 34.68122863769531 60.01251983642578
81.63719177246094 33.352394104003906 61.87823486328125
81.45099639892578 34.12019729614258 61.59375
81.16073608398438 33.47512435913086 58.710296630859375
79.7146987915039 34.72661209106445 61.3119010925293
81.72676849365234 34.27616500854492 58.64221954345703
82.1956787109375 34.44847106933594 57.73736572265625
80.7059555053711 34.25905990600586 59.01264953613281
81.06845092773438 33.674617767333984 61.778564453125
80.218017578125 35.05719757080078 59.4896240234375
81.92737579345703 33.187923431396484 58.82679748535156
82.99295043945312 34.526161193847656 57.48451614379883
83.67594146728516 36.38943099975586 56.262516021728516
79.07479858398438 36.68192672729492 60.40323257446289
78.77497100830078 36.74795150756836 61.07500076293945
79.47089385986328 35.554542541503906 61.23213195800781
78.38794708251953 36.522544860839844 61.09782028198242
81.6450424194336 33.88436508178711 62.46916961669922
80.69332122802734 34.269474029541016 61.48040771484375
80.30831146240234 35.27572250366211 61.39703369140625
82.9328842163086 34.99032974243164 56.63325119018555
80.59017181396484 34.27059555053711 59.82041549682617
78.53187561035156 36.1955451965332 61.1050910949707
83.21549987792969 32.43212127685547 63.76384353637695
82.90499877929688 32.66144561767578 59.57354736328125
82.77649688720703 32.66807174682617 63.04269027709961
82.48019409179688 32.63710021972656 63.59846878051758
85.60726928710938 37.085636138916016 54.77668762207031
83.08628845214844 31.966445922851562 59.62942123413086
82.99501037597656 32.65831756591797 59.16279983520508
84.77825164794922 36.87309265136719 54.98870086669922
82.26716613769531 32.32435989379883 59.56692123413086
82.33820343017578 32.78034591674805 59.64671325683594
82.27986145019531 32.24876022338867 62.9709587097168
84.42088317871094 36.68001937866211 55.97544479370117
84.26358795166016 35.92997741699219 56.20294189453125
83.0438232421875 32.01309585571289 63.33252716064453
83.03580474853516 31.970003128051758 59.119754791259766
84.7291030883789 36.26791763305664 55.390628814697266
64.62321472167969 48.8080940246582 48.32589340209961
63.28718566894531 50.068115234375 48.1993522644043
61.95805740356445 48.834468841552734 48.164649963378906
64.53041076660156 50.25647735595703 41.56727981567383
62.5880012512207 49.148155212402344 48.92970657348633
62.34386444091797 48.715694427490234 42.78540802001953
63.55105972290039 49.689186096191406 42.5904541015625
65.80635833740234 47.90372848510742 40.66628646850586
64.65519714355469 48.808963775634766 46.70967102050781
65.4441909790039 48.05934143066406 45.881324768066406
64.45738220214844 48.8103141784668 44.0123291015625
64.67755889892578 49.93507766723633 42.71035385131836
63.30886459350586 50.10322189331055 46.81747817993164
62.107059478759766 48.935691833496094 46.96950149536133
63.16714859008789 48.83499526977539 48.25166320800781
62.17061233520508 50.086421966552734 48.20877456665039
62.48347854614258 48.57535171508789 41.72136688232422
63.496482849121094 49.83277893066406 41.46450424194336
64.74516296386719 48.8835563659668 45.45730972290039
63.19280242919922 48.860816955566406 49.03007507324219
64.59578704833984 47.497928619384766 42.803138732910156
64.53363037109375 47.5504264831543 44.135353088378906
65.76852416992188 47.649070739746094 41.57094192504883
63.31731033325195 48.79923629760742 46.88426971435547
65.6944808959961 48.788917541503906 46.838897705078125
66.0052490234375 50.069034576416016 41.57207107543945
62.16972351074219 48.84626770019531 44.308860778808594
63.41700744628906 50.2080078125 44.54781723022461
61.985225677490234 48.791969299316406 45.62025833129883
63.195682525634766 50.084449768066406 45.549705505371094
64.63815307617188 50.13495635986328 40.33666229248047
63.73443603515625 49.7330436706543 40.63622283935547
64.51773834228516 48.666141510009766 40.192161560058594
62.365478515625 47.584251403808594 41.67124938964844
64.63971710205078 47.59108352661133 41.43632888793945
64.58142852783203 50.187992095947266 45.55738830566406
64.47869110107422 47.578311920166016 47.949424743652344
63.32255935668945 51.54365539550781 45.54214859008789
62.2154541015625 49.89456558227539 44.652496337890625
63.33915328979492 48.89857864379883 44.21567916870117
65.73484802246094 50.096168518066406 45.60080337524414
63.43227767944336 48.76046371459961 41.411563873291016
64.46443176269531 46.34189224243164 42.83060836791992
64.82514953613281 48.866905212402344 41.44659423828125
63.345664978027344 48.87538146972656 42.75315475463867
64.69979095458984 47.68083572387695 40.52155685424805
65.92282104492188 50.08482360839844 42.557044982910156
62.06923294067383 50.028629302978516 45.48494338989258
63.37760543823242 48.85768127441406 45.514312744140625
64.3991928100586 46.58673858642578 41.726715087890625
66.15540313720703 48.66044616699219 41.6529541015625
61.16190719604492 49.96921157836914 46.878631591796875
65.4441909790039 48.05934143066406 47.2771110534668
63.5716552734375 48.92352294921875 40.588172912597656
64.65560913085938 50.20132827758789 46.8393669128418
64.40753936767578 46.4782600402832 43.99333572387695
64.56006622314453 48.76971435546875 42.85151290893555
63.6389045715332 47.89786911010742 40.59892654418945
64.60879516601562 50.05049514770508 44.675228118896484
63.445640563964844 47.633460998535156 44.26669692993164
65.58235168457031 47.68693542480469 42.69934844970703
63.33712387084961 47.362770080566406 45.424434661865234
63.42716598510742 47.59134292602539 42.86785888671875
62.13697814941406 51.3726806640625 46.82049560546875
65.58221435546875 48.77159881591797 47.8332633972168
65.6386489868164 48.7929573059082 45.76561737060547
63.30538558959961 47.5301399230957 41.31757736206055
64.73941040039062 51.48642349243164 45.43293380737305
64.4351577758789 51.37198257446289 44.74251174926758
66.09406280517578 49.86830520629883 46.76865005493164
62.248329162597656 51.21644973754883 45.69611358642578
65.9341812133789 51.46697235107422 45.544471740722656
65.84095001220703 48.83336639404297 42.68617630004883
64.59346008300781 47.640323638916016 45.70207595825195
62.55122375488281 52.171112060546875 46.1839599609375
61.94858932495117 50.142520904541016 46.738224029541016
63.47847366333008 51.37040328979492 44.75437545776367
64.50990295410156 47.666934967041016 46.66315841674805
61.27283477783203 50.11345672607422 45.78256607055664
64.94290924072266 51.222991943359375 41.560726165771484
65.99659729003906 52.73228454589844 46.93571853637695
63.32099151611328 52.769775390625 48.178836822509766
63.45999526977539 50.179107666015625 49.15449523925781
67.2527084350586 55.38427734375 46.79142761230469
64.57132720947266 54.108070373535156 48.42782211303711
65.94623565673828 50.10224151611328 48.272300720214844
63.79460906982422 55.20313262939453 48.26481246948242
63.51612854003906 52.70473098754883 45.577518463134766
68.00706481933594 53.31254577636719 48.26062774658203
64.65997314453125 55.20925521850586 49.51063537597656
63.511417388916016 52.60547637939453 49.21699142456055
65.96906280517578 51.407535552978516 46.78641128540039
63.404537200927734 52.99478530883789 46.78543472290039
63.882625579833984 54.729949951171875 49.269859313964844
64.62496185302734 55.343353271484375 48.18433380126953
65.94086456298828 54.1292610168457 46.84791564941406
66.67530822753906 50.367027282714844 47.22266387939453
65.88964080810547 54.040950775146484 49.60478591918945
62.54444122314453 52.521209716796875 47.045135498046875
67.2295913696289 54.18498611450195 48.219757080078125
65.88680267333984 51.62608337402344 49.31094741821289
67.01881408691406 55.31428146362305 45.95951461791992
67.13640594482422 52.886802673339844 49.36476516723633
67.37691497802734 52.8030891418457 48.32684326171875
64.55451202392578 50.11811447143555 48.318424224853516
64.37931823730469 49.34898376464844 49.035301208496094
63.809085845947266 54.33858871459961 49.06399154663086
64.59725189208984 53.888458251953125 47.02022171020508
64.70138549804688 52.842796325683594 48.13587951660156
65.91719055175781 54.149330139160156 50.308387756347656
64.674560546875 50.175926208496094 49.20946502685547
63.814334869384766 54.98276901245117 47.08967208862305
67.3021011352539 54.022579193115234 46.8127326965332
68.23286437988281 54.10491943359375 48.28492736816406
66.04096221923828 51.25794219970703 48.20923614501953
65.94380187988281 52.87193298339844 49.554412841796875
63.48076629638672 54.11848068237305 46.99785232543945
64.59732055664062 52.771968841552734 49.651893615722656
64.66476440429688 51.54359436035156 49.38798904418945
66.00996398925781 52.64194107055664 48.20343780517578
65.80207061767578 54.116214752197266 45.687355041503906
64.59761810302734 54.02528762817383 45.78327178955078
64.61682891845703 52.64427185058594 45.4412956237793
66.9690170288086 53.83443069458008 45.999996185302734
64.66816711425781 52.87128448486328 46.72080993652344
64.55138397216797 53.937950134277344 49.62086868286133
63.46879577636719 53.989112854003906 48.17319107055664
64.62657165527344 51.372962951660156 48.093650817871094
67.32173919677734 52.90159606933594 46.936588287353516
67.97776794433594 53.31391143798828 47.241455078125
63.31013488769531 51.4762077331543 46.934810638427734
62.54022216796875 52.247371673583984 48.01900100708008
67.10144805908203 51.68730926513672 48.22222900390625
64.62247467041016 55.19797897338867 46.737464904785156
64.9417495727539 55.12860870361328 45.83647918701172
65.86470794677734 55.53081512451172 45.9160041809082
65.96310424804688 55.27922439575195 46.91890335083008
64.5288314819336 51.471466064453125 46.819984436035156
65.94322967529297 52.82918930053711 45.54447937011719
67.08271789550781 51.6318473815918 46.89059829711914
67.25656127929688 54.007232666015625 49.54127502441406
68.1234359741211 54.05618667602539 47.12010192871094
62.269447326660156 51.35894012451172 48.13959503173828
65.89165496826172 55.314231872558594 48.113582611083984
63.46162033081055 53.835819244384766 46.129058837890625
63.48640060424805 51.543155670166016 49.187564849853516
63.3166618347168 51.42340087890625 48.34225845336914
66.95515441894531 52.8226203918457 45.95527267456055
65.74215698242188 50.390838623046875 49.04297637939453
66.8896255493164 51.76961135864258 46.03195571899414
65.88521575927734 54.1285514831543 48.319637298583984
68.54231262207031 52.742313385009766 41.53929138183594
68.58973693847656 51.43126678466797 41.685585021972656
67.12088775634766 50.23826217651367 42.37179946899414
67.34630584716797 52.71779251098633 40.221214294433594
67.44893646240234 50.03450012207031 41.565181732177734
65.99591064453125 50.13285827636719 40.20117950439453
69.95108795166016 52.774879455566406 41.646141052246094
70.01085662841797 52.692787170410156 40.277496337890625
65.95568084716797 50.10475158691406 39.331600189208984
68.38700103759766 50.441986083984375 41.53734588623047
67.65123748779297 52.350032806396484 42.28936767578125
65.1587905883789 50.25 39.523216247558594
69.91822814941406 54.08681106567383 39.13814163208008
65.30740356445312 49.315025329589844 39.4538459777832
67.46914672851562 53.66559600830078 41.34021759033203
67.14845275878906 49.099246978759766 40.481502532958984
67.37859344482422 49.99076843261719 40.29506301879883
70.95336151123047 53.19118881225586 39.47698211669922
68.5788345336914 51.39360427856445 40.28085708618164
69.73336791992188 51.64002990722656 40.22011184692383
65.05445098876953 51.23249816894531 40.43086624145508
69.404052734375 52.81147384643555 42.21226501464844
66.16419982910156 49.269798278808594 39.523216247558594
67.51423645019531 53.803489685058594 40.303192138671875
70.04241180419922 54.17683410644531 40.24586486816406
68.65250396728516 53.929840087890625 39.29417419433594
68.45860290527344 50.42280578613281 40.2502555847168
68.96621704101562 55.078369140625 41.313716888427734
67.1292953491211 49.04676055908203 41.545345306396484
66.10786437988281 51.22346115112305 42.347713470458984
68.53561401367188 54.049407958984375 41.73263168334961
65.92815399169922 51.51651382446289 41.61216735839844
67.16454315185547 51.4511833190918 40.31079864501953
68.50248718261719 51.51197052001953 39.28485107421875
69.98332214355469 54.15946578979492 41.641353607177734
67.57860565185547 53.495826721191406 39.52577209472656
68.32500457763672 50.6054573059082 39.51362609863281
71.04491424560547 52.991275787353516 40.27730941772461
67.3578872680664 51.530696868896484 39.16621017456055
69.69503021240234 51.72515869140625 41.415775299072266
66.39537048339844 52.49540328979492 41.464229583740234
66.04045104980469 48.82050704956055 40.286590576171875
67.25467681884766 51.47465896606445 41.49951171875
69.43162536621094 51.868255615234375 39.44377899169922
69.95952606201172 54.10384750366211 42.264808654785156
68.67597961425781 52.845680236816406 40.289390563964844
67.39640808105469 52.743186950683594 41.72049331665039
68.61506652832031 52.54454803466797 42.292850494384766
68.86233520507812 55.05963897705078 40.32090759277344
66.38372039794922 52.679176330566406 40.36163330078125
66.15229797363281 51.4144401550293 39.42583084106445
67.48054504394531 52.608489990234375 39.26961898803711
67.29500579833984 50.30845260620117 39.38921356201172
71.07331085205078 53.0894889831543 41.36472702026367
68.55197143554688 54.13162612915039 40.29888153076172
65.91384887695312 51.51773452758789 40.28413772583008
69.86670684814453 52.9065055847168 39.308799743652344
68.97457885742188 53.5970573425293 42.260684967041016
67.21281433105469 51.386077880859375 42.36962127685547
68.70738220214844 52.65167236328125 39.08334732055664
68.53154754638672 51.674442291259766 42.20649337768555
69.0223388671875 54.96881866455078 39.47698211669922
69.87674713134766 55.36833190917969 41.694091796875
73.9052505493164 56.68421936035156 39.35496139526367
72.65281677246094 58.0600700378418 39.36248779296875
74.02497863769531 56.58897018432617 40.19835662841797
71.21775817871094 56.680641174316406 40.198524475097656
71.23870849609375 55.33353042602539 40.154903411865234
72.53428649902344 58.04922103881836 40.19011306762695
70.47564697265625 55.096824645996094 42.29254150390625
71.2911605834961 55.34819030761719 39.108036041259766
73.55299377441406 55.531410217285156 41.384483337402344
72.35262298583984 55.474609375 39.266414642333984
70.3423080444336 56.294960021972656 41.53270721435547
71.54977416992188 57.6373405456543 41.48963165283203
70.14823913574219 55.33991622924805 39.29848098754883
72.45143127441406 56.599647521972656 42.28325653076172
72.61576080322266 55.32552719116211 40.19899368286133
72.55317687988281 56.71196746826172 40.19331359863281
71.26424407958984 55.446319580078125 41.52799987792969
69.88868713378906 55.46692657470703 40.24454116821289
71.43982696533203 57.71900177001953 40.39360046386719
70.20270538330078 56.39951705932617 40.334716796875
73.62938690185547 55.551971435546875 40.35981750488281
72.54969024658203 56.5777473449707 39.099609375
