11.444507598876953 125.53468322753906 48.92001724243164
24.14006996154785 78.25299835205078 17.696767807006836
27.146503448486328 102.78121948242188 44.16818618774414
19.220291137695312 198.5408935546875 13.505754470825195
68.13140869140625 48.53150177001953 19.605405807495117
96.83623504638672 112.31338500976562 17.571239471435547
70.35824584960938 51.496978759765625 19.778371810913086
83.19996643066406 91.33899688720703 9.447749137878418
67.83493041992188 119.15870666503906 42.78123092651367
24.729862213134766 66.71111297607422 23.759090423583984
96.53411865234375 123.98656463623047 17.936691284179688
17.07637596130371 102.00611114501953 47.47480392456055
81.34329223632812 130.69512939453125 58.927947998046875
26.408191680908203 70.38426208496094 21.310928344726562
74.1522445678711 159.24172973632812 21.963350296020508
88.80543518066406 86.1025161743164 42.52922058105469
69.86296844482422 78.8060302734375 23.572795867919922
30.242189407348633 69.07510375976562 40.246097564697266
27.711841583251953 75.56460571289062 41.621978759765625
18.46159553527832 163.64202880859375 14.934712409973145
94.38580322265625 89.76712036132812 15.853976249694824
11.034828186035156 81.38655090332031 28.312097549438477
4.68674373626709 186.0745086669922 10.525379180908203
12.125925064086914 119.34481811523438 48.6556282043457
38.179527282714844 49.51237487792969 37.72896957397461
67.89361572265625 114.20380401611328 8.572739601135254
8.359594345092773 210.73910522460938 69.35130310058594
21.111833572387695 92.10519409179688 46.09577560424805
3.0763025283813477 124.3945541381836 31.513349533081055
32.47589111328125 93.13768768310547 12.532330513000488
6.347011089324951 197.52748107910156 31.373836517333984
21.89127540588379 93.50330352783203 64.67388916015625
19.837194442749023 99.4063491821289 16.127763748168945
70.01445007324219 194.78286743164062 63.72883987426758
91.32689666748047 78.23743438720703 14.611074447631836
5.592031955718994 96.21885681152344 31.034435272216797
43.78792190551758 52.45139694213867 55.6177864074707
73.52450561523438 102.0916748046875 60.40644836425781
77.2475814819336 47.38615036010742 63.91243362426758
68.52481079101562 123.20589447021484 63.68659210205078
97.6486587524414 159.4977569580078 16.838008880615234
24.992992401123047 65.69766235351562 23.278160095214844
32.83173751831055 90.43000793457031 12.587408065795898
8.680355072021484 168.9240264892578 53.090484619140625
62.221961975097656 44.3040657043457 44.55417251586914
85.22614288330078 168.7136993408203 57.75208282470703
87.57614135742188 149.24993896484375 4.761281967163086
83.82238006591797 73.98139190673828 41.414737701416016
47.510826110839844 35.76202392578125 35.81520462036133
55.06875991821289 32.71463394165039 30.91291618347168
39.652976989746094 1.6852613687515259 35.07279586791992
70.90238189697266 92.19634246826172 23.613224029541016
65.78953552246094 194.06027221679688 8.162529945373535
26.169998168945312 91.89030456542969 42.65839385986328
34.0861701965332 99.70801544189453 12.411069869995117
27.023698806762695 90.21051025390625 42.6168212890625
35.38734817504883 109.7793960571289 12.065815925598145
6.340981483459473 143.2403564453125 8.11801815032959
58.53689956665039 37.91706466674805 40.977840423583984
37.883689880371094 44.71216583251953 38.053199768066406
80.40331268310547 60.615989685058594 37.70207214355469
18.56473159790039 163.07571411132812 14.805882453918457
19.136417388916016 184.57681274414062 14.039140701293945
33.14060592651367 64.90974426269531 40.77082061767578
69.59132385253906 64.4062728881836 52.083030700683594
42.17695999145508 38.66801071166992 35.66503143310547
50.040252685546875 1.226271152496338 37.618438720703125
22.068323135375977 81.80418395996094 17.026390075683594
68.92176818847656 161.62416076660156 63.63067626953125
65.83695220947266 53.73115921020508 46.333160400390625
76.5103530883789 180.3391571044922 21.73373031616211
15.754315376281738 92.15096282958984 11.59556770324707
7.43258810043335 173.2613983154297 29.793594360351562
89.61654663085938 171.1879425048828 4.652576446533203
34.55290603637695 99.8111801147461 12.181150436401367
74.1229248046875 156.27545166015625 21.85543441772461
84.0079574584961 36.11909866333008 56.152442932128906
74.78341674804688 88.61358642578125 56.7453727722168
27.513498306274414 96.82754516601562 42.97521209716797
27.731094360351562 161.16065979003906 54.225494384765625
33.10756301879883 92.64759826660156 12.156475067138672
55.53112030029297 37.041893005371094 45.03340148925781
32.1934928894043 67.45096588134766 41.058380126953125
66.91644287109375 102.18427276611328 10.527139663696289
87.759033203125 92.05677795410156 39.6441650390625
68.79248809814453 51.917110443115234 40.15521240234375
96.3401107788086 111.84761047363281 17.986461639404297
88.13648986816406 207.3998565673828 4.319286346435547
89.5956039428711 166.080810546875 70.45948791503906
31.565967559814453 60.85143280029297 39.565311431884766
26.258548736572266 105.25423431396484 43.054874420166016
87.95785522460938 73.21947479248047 13.281656265258789
67.53593444824219 51.163795471191406 39.887447357177734
18.329833984375 132.72784423828125 16.42624855041504
70.66361236572266 39.34585189819336 56.469661712646484
95.45106506347656 193.31752014160156 17.410938262939453
68.56150817871094 51.612064361572266 18.870136260986328
7.956219673156738 175.87753295898438 29.820375442504883
30.017070770263672 83.14616394042969 13.901702880859375
34.707069396972656 201.63809204101562 10.280729293823242
89.3746566772461 118.9315414428711 69.58576965332031
69.71605682373047 192.45785522460938 63.91450500488281
31.322172164916992 56.40274429321289 25.818326950073242
10.848012924194336 96.61605834960938 11.948163032531738
95.46505737304688 98.74877166748047 15.790576934814453
95.44906616210938 193.271240234375 17.427038192749023
6.100454807281494 98.41290283203125 31.822959899902344
96.98760223388672 147.84811401367188 17.178071975708008
37.11581039428711 49.79037857055664 61.22808074951172
20.055938720703125 101.68905639648438 65.73505401611328
67.26502990722656 53.79844665527344 25.843542098999023
82.71389770507812 75.25592041015625 12.276843070983887
5.113887786865234 163.63507080078125 8.983011245727539
19.818666458129883 95.22838592529297 15.659116744995117
17.80756950378418 130.88563537597656 16.431325912475586
34.95467758178711 101.18978881835938 12.321929931640625
18.460262298583984 135.69586181640625 16.41034698486328
80.93456268310547 49.834747314453125 66.13270568847656
35.35514450073242 111.99635314941406 12.428382873535156
5.447295188903809 159.61285400390625 8.796557426452637
97.5517349243164 169.15367126464844 17.33373260498047
11.547016143798828 102.48863220214844 11.164167404174805
21.80648422241211 45.989322662353516 16.141176223754883
25.603605270385742 63.597206115722656 20.972009658813477
9.026115417480469 156.65255737304688 70.32514953613281
68.38499450683594 77.36560821533203 22.513774871826172
80.93456268310547 49.834747314453125 66.13270568847656
69.94093322753906 53.22397232055664 41.042701721191406
9.187551498413086 170.2728271484375 70.78417205810547
6.19572114944458 162.01145935058594 28.63299560546875
30.109235763549805 59.299503326416016 24.722572326660156
68.092529296875 81.63153076171875 49.56544494628906
57.43585205078125 39.191410064697266 31.72844696044922
21.21318817138672 91.61560821533203 65.48411560058594
22.54974937438965 132.107421875 67.36698913574219
66.47370147705078 60.30860900878906 48.3548583984375
26.6611385345459 154.73666381835938 67.299560546875
68.060546875 201.95626831054688 43.7183723449707
91.11453247070312 145.1096954345703 33.993377685546875
76.26351165771484 59.04844284057617 16.030439376831055
67.71524810791016 138.17709350585938 63.8121223449707
27.797191619873047 59.04157638549805 22.475940704345703
73.95773315429688 59.389522552490234 40.50777816772461
37.660587310791016 45.49653244018555 32.00161361694336
80.93456268310547 49.834747314453125 66.13270568847656
69.93587493896484 110.76353454589844 62.94614028930664
79.84857940673828 113.65618133544922 60.01042175292969
68.28007507324219 66.30310821533203 49.64570617675781
19.41389274597168 102.21389770507812 16.441925048828125
35.139888763427734 170.13174438476562 10.789297103881836
43.27980422973633 50.943599700927734 55.64199447631836
68.96107482910156 54.48432540893555 40.60443115234375
18.633554458618164 154.67860412597656 15.335541725158691
64.5486068725586 38.4969596862793 23.613807678222656
34.811588287353516 101.83838653564453 12.314577102661133
11.548928260803223 110.44480895996094 69.49183654785156
95.41805267333984 211.33570861816406 27.845502853393555
82.5994644165039 75.55106353759766 12.663151741027832
68.060546875 201.95626831054688 43.7183723449707
35.17479705810547 171.41432189941406 11.010595321655273
64.32893371582031 44.174964904785156 25.30680274963379
90.31271362304688 150.81594848632812 70.20362854003906
9.511686325073242 117.34394836425781 9.270391464233398
46.69512939453125 47.04991149902344 52.922462463378906
31.702909469604492 68.67585754394531 41.92760467529297
51.129425048828125 28.768461227416992 32.18134689331055
69.64840698242188 85.96572875976562 23.055448532104492
84.5472640991211 52.59294128417969 64.54212188720703
26.298246383666992 102.20901489257812 43.3133544921875
77.96028137207031 106.31896209716797 58.45865249633789
19.425338745117188 102.68653106689453 16.28833770751953
23.09203338623047 67.70465087890625 25.553245544433594
9.024641990661621 160.68702697753906 70.61930847167969
24.892955780029297 66.19038391113281 22.910905838012695
5.890678882598877 146.45285034179688 8.451072692871094
90.32537841796875 140.62911987304688 68.62178039550781
64.156005859375 46.820796966552734 43.113868713378906
35.110408782958984 177.51942443847656 9.709561347961426
43.5523681640625 51.2629508972168 53.90016555786133
23.863908767700195 138.58485412597656 67.68768310546875
26.82761573791504 81.15782165527344 41.486576080322266
19.7221736907959 111.4186019897461 66.74385070800781
19.155651092529297 88.78260803222656 15.081734657287598
16.25588607788086 104.98482513427734 48.04674530029297
27.23004913330078 93.20254516601562 42.5342903137207
55.929962158203125 36.52300262451172 28.463863372802734
87.83702087402344 107.6125717163086 37.26349639892578
70.1767807006836 77.27621459960938 22.528932571411133
67.74565887451172 56.86094665527344 25.73311424255371
78.58704376220703 106.9342269897461 58.60762405395508
97.0103530883789 150.39508056640625 17.288366317749023
12.639378547668457 99.85299682617188 52.41632080078125
6.5665178298950195 119.31815338134766 29.886817932128906
82.49198913574219 68.07280731201172 13.614885330200195
5.868302345275879 151.91024780273438 27.847843170166016
84.882568359375 103.81549072265625 8.231551170349121
11.126192092895508 124.22191619873047 48.80015182495117
27.595773696899414 112.28732299804688 43.82707214355469
92.47506713867188 154.39634704589844 33.82951354980469
7.517152786254883 132.5623779296875 7.603841781616211
31.0321044921875 56.00417709350586 25.7945556640625
65.66984558105469 85.35857391357422 15.398152351379395
8.354073524475098 180.1084747314453 53.54838562011719
76.44222259521484 195.2081298828125 21.502363204956055
31.535497665405273 48.79301834106445 29.497037887573242
67.90873718261719 118.21121215820312 43.17656326293945
56.448463439941406 38.91962432861328 28.073108673095703
90.4812240600586 143.0169677734375 68.82563781738281
9.104251861572266 170.66465759277344 70.84601593017578
95.0030517578125 94.18665313720703 16.225055694580078
90.34153747558594 150.68898010253906 70.00541687011719
68.72782897949219 58.9047737121582 50.50135040283203
81.78217315673828 143.132568359375 58.31802749633789
88.52461242675781 123.85350799560547 35.6334342956543
23.243803024291992 81.41936492919922 16.826112747192383
68.04643249511719 133.58883666992188 64.04652404785156
31.638927459716797 51.21117401123047 25.284740447998047
16.021526336669922 76.07069396972656 28.328649520874023
5.278818130493164 215.30079650878906 11.251775741577148
40.82053756713867 36.37422561645508 37.28163528442383
9.08138370513916 152.68687438964844 70.01612091064453
26.295629501342773 99.80077362060547 43.352684020996094
53.87016296386719 38.00111770629883 44.59149169921875
67.56551361083984 117.73957824707031 43.07096481323242
89.66932678222656 193.57054138183594 53.858436584472656
67.60773468017578 116.8175277709961 43.096519470214844
98.8482894897461 163.32518005371094 56.426048278808594
48.82664489746094 33.03281784057617 34.84862518310547
69.20154571533203 59.50886917114258 49.90208053588867
68.6280517578125 69.604736328125 24.873260498046875
8.957005500793457 154.55218505859375 70.19400787353516
33.0899772644043 215.1041259765625 10.603019714355469
74.79075622558594 33.17860412597656 13.587214469909668
86.98092651367188 139.60707092285156 5.308750152587891
84.15137481689453 30.99075698852539 64.76303100585938
68.23709869384766 197.34280395507812 43.62894821166992
90.35675048828125 139.30517578125 34.85068130493164
89.21924591064453 134.0832977294922 35.02204513549805
14.530900955200195 111.15743255615234 48.34413146972656
7.7040510177612305 111.83878326416016 26.86668586730957
67.57221984863281 206.07675170898438 43.66770553588867
40.3278923034668 42.72195053100586 34.58570861816406
68.6558609008789 175.32492065429688 63.41083908081055
94.93482971191406 70.61654663085938 68.96148681640625
73.86154174804688 134.7366180419922 22.733787536621094
67.7791748046875 50.463043212890625 19.778470993041992
13.476558685302734 107.93934631347656 69.04154968261719
57.51850128173828 40.15455627441406 27.48495864868164
46.83415985107422 33.36320495605469 33.07646179199219
23.0080623626709 76.14501190185547 18.34360694885254
41.071868896484375 53.11984634399414 57.66756057739258
83.54679870605469 68.03606414794922 12.562483787536621
71.12910461425781 92.51290893554688 22.93360710144043
9.605711936950684 81.73993682861328 28.015853881835938
79.87342834472656 107.8208236694336 59.09950637817383
74.14920806884766 59.13774490356445 40.16569137573242
60.82555389404297 47.3197135925293 46.756839752197266
90.11634826660156 161.29620361328125 70.36979675292969
20.52458953857422 91.64264678955078 16.305416107177734
25.71446990966797 148.58607482910156 67.6126937866211
67.34132385253906 210.5376739501953 43.527610778808594
26.79534149169922 162.3540496826172 67.31458282470703
6.091697692871094 109.72944641113281 28.197498321533203
38.82052993774414 119.7475357055664 15.78375244140625
27.907514572143555 49.541221618652344 13.512606620788574
98.8954086303711 159.17982482910156 55.38533020019531
96.97212982177734 142.852783203125 17.339675903320312
26.510589599609375 67.1604995727539 20.75666618347168
73.41858673095703 81.23992156982422 53.00918960571289
24.358434677124023 86.84393310546875 64.8470230102539
34.16657638549805 206.34698486328125 10.578462600708008
21.301881790161133 88.04176330566406 16.840105056762695
28.148006439208984 81.67203521728516 42.439762115478516
8.40998363494873 124.77464294433594 8.250469207763672
35.1526985168457 139.011474609375 9.065224647521973
69.52464294433594 39.05624008178711 55.969322204589844
71.47962188720703 94.59794616699219 23.631061553955078
65.79310607910156 192.23263549804688 8.178601264953613
62.24105453491211 50.3756217956543 47.01758575439453
74.73931884765625 84.74236297607422 55.596717834472656
56.790950775146484 37.8189811706543 42.908260345458984
26.525291442871094 103.74330139160156 43.92136764526367
74.23829650878906 59.51155090332031 41.10641098022461
65.88262176513672 186.4764404296875 8.512857437133789
8.659865379333496 174.89413452148438 70.95732116699219
6.20921516418457 143.49371337890625 27.77153778076172
20.949851989746094 97.67816162109375 66.03580474853516
35.1600456237793 171.6917724609375 11.004179000854492
24.93363380432129 75.42649841308594 17.356571197509766
41.204227447509766 37.68320846557617 38.06454849243164
86.17359924316406 77.75537872314453 40.51417922973633
33.830055236816406 58.35824203491211 39.34602355957031
98.21192169189453 132.8993377685547 57.350093841552734
50.141937255859375 28.0435733795166 38.053646087646484
43.322166442871094 0.8129470944404602 39.56194305419922
87.75553131103516 149.39002990722656 4.756458759307861
88.819091796875 118.484130859375 36.31627655029297
28.806533813476562 218.75233459472656 59.29460906982422
66.51058959960938 37.04533767700195 21.816490173339844
36.56552505493164 48.27497863769531 39.57988739013672
29.60592269897461 177.04103088378906 54.99757766723633
75.83145141601562 98.07051086425781 56.69512176513672
72.99443054199219 54.54726028442383 18.02273178100586
81.35150909423828 129.3187255859375 58.87118148803711
59.98323059082031 42.88334655761719 26.73021697998047
64.48528289794922 49.79880905151367 48.23467254638672
6.678366184234619 193.83848571777344 31.41728973388672
72.19534301757812 214.63584899902344 63.72287368774414
65.31861877441406 83.1115951538086 18.071680068969727
68.2774429321289 121.7750244140625 7.900082111358643
96.9234390258789 146.64732360839844 17.196857452392578
46.65177536010742 21.730243682861328 40.893272399902344
85.58097839355469 78.87529754638672 40.15593719482422
30.591054916381836 58.423301696777344 24.868227005004883
18.33993148803711 112.72285461425781 15.69814682006836
23.277027130126953 82.33651733398438 17.70895767211914
92.69615173339844 159.25299072265625 33.80329132080078
51.882423400878906 42.03863525390625 46.730918884277344
31.193357467651367 70.81939697265625 40.844276428222656
28.76764678955078 204.549560546875 57.69709396362305
33.31472396850586 213.39801025390625 10.758526802062988
22.630647659301758 88.20674896240234 65.93940734863281
95.4372329711914 106.38668823242188 54.71166229248047
96.91519927978516 144.59552001953125 17.0433349609375
98.85400390625 145.52442932128906 56.47239685058594
8.50896167755127 165.08726501464844 52.675987243652344
29.60297203063965 173.72828674316406 54.716007232666016
32.0914421081543 151.49681091308594 48.402652740478516
94.52609252929688 205.6513671875 28.685470581054688
13.476812362670898 107.99663543701172 69.32833099365234
68.02250671386719 128.5523681640625 64.228515625
90.15103912353516 140.06887817382812 34.77470397949219
65.23387908935547 86.67804718017578 15.459532737731934
26.96868324279785 68.47702026367188 20.74992561340332
56.41970443725586 39.828643798828125 45.70611572265625
5.6247334480285645 120.42432403564453 30.84320068359375
35.21291732788086 170.8730926513672 10.740251541137695
38.82052993774414 119.7475357055664 15.78375244140625
38.82052993774414 119.7475357055664 15.78375244140625
33.69114685058594 97.24032592773438 12.624092102050781
68.01209259033203 68.47147369384766 23.782018661499023
69.06147766113281 57.943336486816406 48.393592834472656
7.627557754516602 190.89483642578125 31.546541213989258
66.6240005493164 53.811920166015625 48.5279426574707
71.43655395507812 94.9365005493164 23.56063461303711
68.52117919921875 69.02347564697266 24.62166404724121
28.043102264404297 162.3082733154297 42.24913024902344
6.714737415313721 110.35381317138672 28.167428970336914
65.75597381591797 198.9661865234375 7.772385597229004
68.20895385742188 121.30175018310547 63.62785720825195
82.11376953125 67.94882202148438 12.890809059143066
5.899643421173096 143.99905395507812 27.947656631469727
18.131511688232422 214.0263671875 13.582381248474121
96.20817565917969 182.10110473632812 16.920583724975586
67.56082153320312 177.20550537109375 7.478214263916016
33.15509796142578 62.25798416137695 39.587196350097656
32.26551818847656 89.6496353149414 13.350769996643066
95.70306396484375 102.0619125366211 15.916093826293945
43.45529556274414 20.084287643432617 35.55757141113281
21.148052215576172 95.70487213134766 66.37197875976562
93.86820220947266 198.68495178222656 29.929706573486328
3.5438389778137207 122.5429916381836 32.15970993041992
67.82035827636719 219.4327392578125 42.31120300292969
83.83751678466797 71.08509063720703 40.522796630859375
89.95362091064453 198.3489532470703 52.35002899169922
64.55917358398438 48.95366668701172 42.633296966552734
87.12913513183594 195.0532684326172 69.0790786743164
77.04869079589844 61.36766052246094 15.697491645812988
28.666606903076172 81.43917846679688 43.501949310302734
87.99481201171875 99.81021881103516 37.92600631713867
68.51364135742188 138.10914611816406 7.582273960113525
68.52383422851562 191.36865234375 43.51600646972656
31.45990562438965 52.690147399902344 28.176694869995117
79.2905502319336 64.5057601928711 40.404720306396484
78.99938201904297 47.23090744018555 63.12730026245117
67.56082153320312 177.20550537109375 7.478214263916016
27.838525772094727 121.18822479248047 43.176422119140625
92.10381317138672 82.54187774658203 15.102304458618164
26.69880485534668 76.49341583251953 63.30251693725586
77.35057067871094 61.905914306640625 14.525035858154297
89.16647338867188 75.13614654541016 13.909012794494629
68.04438018798828 145.8048095703125 63.763092041015625
96.31307983398438 200.0655975341797 16.244295120239258
10.04442024230957 114.36457824707031 69.54744720458984
51.67807388305664 37.26069259643555 39.90430450439453
9.442365646362305 146.59657287597656 50.65107345581055
34.737831115722656 196.3006591796875 9.552215576171875
68.89232635498047 162.16534423828125 63.290809631347656
69.08687591552734 152.09124755859375 7.291881561279297
29.613061904907227 176.1562957763672 54.836273193359375
81.29833984375 65.79174041748047 13.399347305297852
54.60983657836914 39.89552688598633 42.609012603759766
81.76897430419922 140.7213134765625 58.74696350097656
68.6043472290039 177.3305206298828 63.34845733642578
50.22212600708008 45.08987045288086 50.14417266845703
27.039947509765625 57.75238037109375 23.58205223083496
35.01108169555664 165.06521606445312 10.618887901306152
26.755395889282227 164.65701293945312 67.19975280761719
79.74073791503906 113.81290435791016 59.5949821472168
66.43282318115234 91.62982940673828 46.07982635498047
88.12770080566406 128.20806884765625 67.24532318115234
90.1819839477539 216.93576049804688 67.55370330810547
22.841970443725586 90.42509460449219 65.29497528076172
32.62302780151367 58.07572555541992 41.055721282958984
89.30906677246094 190.57237243652344 54.48316955566406
47.081443786621094 12.229561805725098 35.36946105957031
37.82399368286133 46.6509895324707 37.41223907470703
35.32894515991211 136.82667541503906 9.345728874206543
75.63282012939453 209.70263671875 22.144332885742188
9.181097030639648 153.7632293701172 51.52682113647461
82.08584594726562 80.23660278320312 11.313239097595215
3.5438389778137207 122.5429916381836 32.15970993041992
87.56004333496094 179.1046600341797 56.62480926513672
30.05757713317871 70.22403717041016 40.2057991027832
76.50054168701172 191.87713623046875 21.580055236816406
26.330928802490234 67.50927734375 22.10471534729004
18.890310287475586 179.599853515625 14.424054145812988
71.07764434814453 71.52555084228516 51.06303405761719
29.783140182495117 56.90714645385742 22.927797317504883
48.52253341674805 25.074451446533203 30.46851921081543
23.790645599365234 46.23851776123047 16.94938850402832
97.03465270996094 115.5970687866211 18.622316360473633
85.18199920654297 116.09095001220703 65.10281372070312
26.668201446533203 160.8572235107422 67.31991577148438
6.0343708992004395 119.92772674560547 30.433897018432617
51.76260757446289 28.5970401763916 39.61499786376953
96.50102996826172 128.57501220703125 17.84466552734375
86.14382934570312 132.57997131347656 5.686940670013428
14.146629333496094 77.21670532226562 29.095272064208984
41.48537826538086 6.421229362487793 35.16859436035156
18.183279037475586 131.75814819335938 16.494752883911133
5.898277759552002 151.56967163085938 27.701618194580078
44.326419830322266 36.17483901977539 38.83880615234375
68.62142181396484 134.64459228515625 7.8834309577941895
26.356163024902344 105.46514892578125 43.30879592895508
76.77237701416016 97.41138458251953 56.21929168701172
19.750938415527344 72.35489654541016 27.184337615966797
74.34833526611328 217.5734405517578 22.430099487304688
96.5910873413086 131.1893768310547 17.360496520996094
5.485334396362305 128.25320434570312 29.142404556274414
5.282754898071289 199.69680786132812 11.238531112670898
76.66893005371094 183.1451416015625 21.478500366210938
86.49488067626953 53.90639877319336 64.65768432617188
21.98724937438965 86.09146118164062 17.424219131469727
55.567989349365234 33.507591247558594 38.43279266357422
29.747793197631836 171.23524475097656 54.493377685546875
89.55023956298828 135.15187072753906 68.15756225585938
29.58611488342285 71.13999938964844 62.98202896118164
18.663936614990234 209.77317810058594 13.311675071716309
28.132991790771484 118.57572937011719 43.231971740722656
73.71316528320312 33.35929870605469 14.622962951660156
67.17173767089844 105.1716537475586 44.035400390625
69.71912384033203 73.31036376953125 23.568849563598633
57.49267578125 36.91497802734375 44.032936096191406
24.886199951171875 84.6772689819336 65.23344421386719
13.279067039489746 95.37063598632812 50.68730545043945
87.49223327636719 54.7693977355957 64.49665832519531
37.5882682800293 45.38872528076172 38.4644660949707
27.76352310180664 109.82621002197266 43.52875900268555
18.42327117919922 104.341064453125 66.30168151855469
34.94095993041992 103.63583374023438 12.821959495544434
33.328041076660156 65.4041748046875 61.90199279785156
67.11415100097656 39.373661041259766 52.960391998291016
73.76734924316406 57.12844467163086 15.442765235900879
68.5794677734375 174.23220825195312 6.99534273147583
92.79771423339844 164.26016235351562 33.52330017089844
24.862987518310547 81.20354461669922 63.7444953918457
50.744895935058594 30.284730911254883 35.34402847290039
10.500165939331055 109.4725341796875 10.08372688293457
58.72115707397461 40.31357955932617 31.176828384399414
66.36675262451172 90.58714294433594 12.980798721313477
34.818687438964844 49.03549575805664 27.341611862182617
68.44676208496094 78.75118255615234 21.418489456176758
65.51492309570312 38.84685134887695 51.129520416259766
67.88727569580078 138.97535705566406 63.79594421386719
8.4706449508667 178.3147430419922 30.20619773864746
66.3696517944336 92.05792999267578 12.673473358154297
68.62299346923828 61.28957748413086 24.716777801513672
17.90955924987793 47.76047134399414 13.651321411132812
8.681731224060059 123.37931823730469 69.94049835205078
26.035696029663086 71.91565704345703 20.31660270690918
81.2785415649414 70.26292419433594 13.760601043701172
36.40674591064453 60.74370574951172 59.14750671386719
19.20587921142578 71.4119873046875 27.245437622070312
13.193512916564941 98.15648651123047 10.986625671386719
84.675537109375 97.22724151611328 8.384858131408691
65.7972412109375 50.41738510131836 25.04709243774414
23.53837013244629 74.4365005493164 18.07419204711914
80.19232940673828 109.73235321044922 60.231143951416016
68.70657348632812 65.94696044921875 25.39577293395996
8.600449562072754 183.4813690185547 71.5571060180664
29.33319854736328 194.81297302246094 56.5145263671875
7.775599479675293 130.0999298095703 8.06021785736084
25.764820098876953 52.503509521484375 49.18234634399414
27.52147102355957 121.63021087646484 43.37640380859375
65.26822662353516 37.895172119140625 22.853307723999023
38.57639694213867 46.53770065307617 35.94594955444336
68.6811294555664 119.73872375488281 63.50666046142578
85.87840270996094 77.63227081298828 39.97311782836914
8.68232250213623 141.88491821289062 70.1418228149414
67.02984619140625 36.69823455810547 21.32242202758789
96.26358032226562 127.53535461425781 18.022775650024414
25.082874298095703 63.4337043762207 22.680479049682617
65.86470794677734 86.9310302734375 46.869075775146484
71.38372039794922 56.31279754638672 41.200443267822266
68.0168685913086 123.08470153808594 7.79976224899292
97.47701263427734 163.51498413085938 17.13957977294922
88.85371398925781 161.92120361328125 4.465582370758057
91.36632537841797 146.20669555664062 34.26759338378906
19.291908264160156 198.63511657714844 13.502516746520996
83.29905700683594 91.64401245117188 8.945423126220703
26.23126983642578 105.44786071777344 43.45668029785156
78.97711181640625 106.98247528076172 59.61580276489258
68.34266662597656 178.5695343017578 43.60242462158203
77.927490234375 100.52247619628906 57.63437271118164
35.36994171142578 60.68281936645508 60.20656967163086
68.46160888671875 43.600929260253906 19.723020553588867
64.87866973876953 46.716854095458984 24.384033203125
97.52462768554688 165.59461975097656 17.261442184448242
14.74056625366211 97.11536407470703 50.45780944824219
67.269287109375 114.34738159179688 8.742013931274414
68.47408294677734 71.0611343383789 24.69106674194336
59.175960540771484 38.57950973510742 28.844268798828125
76.40692901611328 180.0722198486328 21.661155700683594
61.507137298583984 43.07486343383789 42.959346771240234
82.50741577148438 70.7881088256836 13.073646545410156
68.79581451416016 159.6881103515625 6.883820533752441
75.53900146484375 174.9582977294922 21.773101806640625
81.92330932617188 70.68412780761719 12.842490196228027
87.98563385009766 152.4397735595703 4.799438953399658
36.94693374633789 57.795066833496094 58.92766571044922
20.489091873168945 46.2280387878418 15.454798698425293
5.128176212310791 191.9834442138672 11.098703384399414
8.170390129089355 182.9779052734375 53.337223052978516
92.783447265625 159.22679138183594 33.67827606201172
91.03358459472656 88.28070831298828 45.270599365234375
65.51492309570312 38.84685134887695 51.129520416259766
78.48818969726562 107.98361206054688 58.56736755371094
95.45955657958984 108.515625 56.325435638427734
74.12139892578125 157.6206817626953 22.036121368408203
14.047872543334961 95.15125274658203 10.762316703796387
91.71922302246094 121.30785369873047 71.99835205078125
70.55499267578125 78.93543243408203 52.55579376220703
92.43801879882812 151.88827514648438 33.85731887817383
29.89672088623047 68.78485870361328 40.207698822021484
69.76217651367188 192.78599548339844 63.91217803955078
25.40178108215332 72.98340606689453 20.243595123291016
87.6727523803711 149.65499877929688 4.696159362792969
81.8467788696289 141.77220153808594 58.320674896240234
67.49864196777344 116.34111022949219 43.145477294921875
42.13170623779297 39.925758361816406 38.16971206665039
68.91425323486328 114.79218292236328 62.7408561706543
5.956735610961914 107.52751922607422 30.542844772338867
87.76730346679688 98.6554183959961 38.89097213745117
57.979591369628906 44.37247848510742 43.84468078613281
56.58988952636719 38.87820816040039 31.63121223449707
9.476911544799805 119.62852478027344 69.80439758300781
8.125090599060059 187.32469177246094 53.06204605102539
49.78966522216797 13.786236763000488 35.422332763671875
24.7281494140625 80.75765991210938 64.92182159423828
52.90485763549805 29.03277587890625 37.57703399658203
90.09616088867188 138.28543090820312 68.42044830322266
60.58497619628906 40.26629638671875 30.191131591796875
18.78762435913086 100.74237060546875 65.57172393798828
96.51215362548828 176.0621795654297 16.82573890686035
29.405683517456055 71.26839447021484 41.9484977722168
69.56407165527344 65.18403625488281 51.518367767333984
36.674888610839844 46.06626510620117 37.07339859008789
5.921839714050293 94.55925750732422 30.20767593383789
77.16963195800781 102.66492462158203 59.347686767578125
92.57218933105469 161.84120178222656 33.88331985473633
69.7393569946289 113.9024887084961 62.903568267822266
88.23587799072266 106.12259674072266 37.46436309814453
46.822078704833984 21.169719696044922 30.431522369384766
70.14555358886719 110.53535461425781 62.62442398071289
92.0217056274414 150.60472106933594 33.73802947998047
28.455339431762695 199.24440002441406 38.84081268310547
9.101490020751953 146.28079223632812 70.10433197021484
68.10083770751953 135.67576599121094 63.83528518676758
68.6197509765625 190.6479034423828 43.48586654663086
9.232560157775879 167.71815490722656 70.74458312988281
36.04475402832031 119.59900665283203 11.391002655029297
69.998779296875 75.03194427490234 53.13915252685547
74.08110809326172 125.64922332763672 23.36811637878418
75.70435333251953 91.10967254638672 56.301876068115234
71.53851318359375 68.5860595703125 50.870140075683594
23.91550064086914 138.7068328857422 67.88910675048828
56.68972396850586 40.056732177734375 42.98532485961914
28.346683502197266 197.710205078125 38.79408264160156
65.87559509277344 85.31399536132812 16.09334945678711
28.114505767822266 86.14090728759766 42.176475524902344
88.37948608398438 172.99732971191406 70.19633483886719
42.197227478027344 14.849008560180664 32.86792755126953
95.35152435302734 108.90898132324219 56.256553649902344
95.1004638671875 96.81500244140625 16.02715492248535
24.496702194213867 85.5505142211914 64.06547546386719
30.128087997436523 66.24720764160156 39.8560791015625
38.23002243041992 44.03611373901367 36.92227554321289
5.451225280761719 158.41970825195312 8.663531303405762
55.509273529052734 32.906925201416016 41.47573471069336
78.39492797851562 62.12030792236328 13.860379219055176
88.96956634521484 132.45230102539062 67.80154418945312
96.37845611572266 103.05341339111328 16.28518295288086
88.61056518554688 156.8978271484375 4.624523639678955
87.47874450683594 124.29056549072266 66.94882202148438
73.28117370605469 83.06063079833984 54.70183563232422
42.63908004760742 20.32803726196289 35.58360290527344
29.777814865112305 73.43203735351562 63.49230194091797
67.67127227783203 47.29351806640625 21.12607765197754
32.502647399902344 57.34100341796875 40.800453186035156
5.886865615844727 151.042724609375 28.149017333984375
67.87763214111328 81.94043731689453 49.94835662841797
79.07147979736328 107.86329650878906 59.914730072021484
18.751039505004883 107.41991424560547 16.55581283569336
26.70733642578125 105.47328186035156 42.97893524169922
66.08900451660156 87.24960327148438 47.16353225708008
16.14796257019043 91.94646453857422 12.23981761932373
79.37519073486328 47.290714263916016 63.12364959716797
85.38870239257812 76.7448959350586 41.33808517456055
8.718232154846191 166.58636474609375 52.81077575683594
96.55934143066406 207.4849853515625 14.767231941223145
21.27284049987793 92.7749252319336 65.37126159667969
67.2380142211914 212.74754333496094 43.232391357421875
18.46935272216797 152.27455139160156 15.526745796203613
29.344772338867188 206.93150329589844 71.49205017089844
27.59273338317871 126.27919006347656 43.15611267089844
82.53182983398438 70.85771942138672 40.762542724609375
31.829084396362305 90.57195281982422 12.851813316345215
68.05721282958984 143.24819946289062 63.880096435546875
6.809216499328613 110.86896514892578 26.829286575317383
72.37325286865234 78.18375396728516 54.469993591308594
90.30706787109375 146.81947326660156 69.86900329589844
76.4980239868164 192.2267303466797 21.508432388305664
7.252923488616943 132.78021240234375 7.962403774261475
83.36125183105469 90.78032684326172 9.13772201538086
74.88729858398438 90.70677185058594 57.11822509765625
72.35205841064453 108.51388549804688 23.825700759887695
95.71599578857422 184.7982635498047 17.227855682373047
10.234078407287598 54.15211868286133 62.031063079833984
8.425993919372559 134.63917541503906 70.24500274658203
96.14974975585938 181.985107421875 16.92047691345215
63.87748718261719 87.18359375 12.802706718444824
82.02619171142578 82.31409454345703 10.53083610534668
27.274065017700195 126.10618591308594 43.81369400024414
93.29644775390625 186.83285522460938 32.608028411865234
25.872997283935547 87.12400817871094 44.48419952392578
86.02314758300781 80.3730697631836 40.96208572387695
88.60881805419922 156.23171997070312 4.503084182739258
82.38626098632812 66.50995635986328 40.97574234008789
35.16386413574219 168.744140625 10.74606990814209
29.829444885253906 83.04109954833984 13.800975799560547
27.249547958374023 109.11402130126953 42.7370719909668
88.63968658447266 117.69700622558594 36.28187561035156
16.02704429626465 74.64742279052734 28.60663604736328
87.73313903808594 184.70899963378906 4.878425598144531
89.90670776367188 136.3814239501953 68.3879165649414
69.47319030761719 75.71431732177734 24.059600830078125
27.45149803161621 138.21067810058594 44.265663146972656
5.2397003173828125 215.7625732421875 11.216228485107422
26.89945411682129 171.9589080810547 67.21500396728516
71.89494323730469 103.71468353271484 23.570955276489258
68.21780395507812 129.67881774902344 43.41758346557617
16.1688289642334 43.773502349853516 42.404022216796875
98.90934753417969 143.12600708007812 56.51032638549805
80.06451416015625 63.45381164550781 13.762186050415039
69.51046752929688 78.70390319824219 51.55617904663086
68.50605010986328 190.7312774658203 43.514400482177734
9.4917631149292 119.59980773925781 69.64119720458984
69.36978149414062 52.60094451904297 41.328468322753906
72.73363494873047 117.57453918457031 23.575389862060547
68.00462341308594 150.2247314453125 43.077266693115234
69.83548736572266 70.69474792480469 23.264917373657227
68.1601333618164 81.87664794921875 49.84248733520508
26.09241485595703 159.04405212402344 52.15068054199219
97.66846466064453 167.8299102783203 17.203298568725586
33.59014129638672 98.56945037841797 12.28509521484375
5.923299312591553 98.7994384765625 31.853090286254883
67.8324203491211 147.6798858642578 43.03233337402344
23.691389083862305 137.6221160888672 67.73234558105469
78.00627899169922 37.26485061645508 60.294708251953125
95.4911117553711 108.99251556396484 56.5842399597168
84.09940338134766 36.19253921508789 56.07355499267578
79.93141174316406 108.96945190429688 60.455963134765625
22.310401916503906 44.76405715942383 39.19547653198242
20.550777435302734 114.37229919433594 66.58789825439453
97.29045104980469 121.88095092773438 58.431190490722656
27.50521469116211 75.80068969726562 64.4800796508789
71.33465576171875 93.8991470336914 23.71303367614746
26.82879066467285 77.1635971069336 16.416446685791016
87.671875 122.90739440917969 66.39693450927734
19.128299713134766 97.68096923828125 16.20136833190918
88.70118713378906 124.64849853515625 35.903602600097656
15.294611930847168 97.24846649169922 49.95411682128906
31.52408790588379 157.45578002929688 51.283660888671875
88.00862884521484 108.26659393310547 37.0494499206543
69.23106384277344 189.20382690429688 63.66747283935547
34.930484771728516 49.511741638183594 27.887035369873047
28.700502395629883 152.10523986816406 44.8897705078125
82.17988586425781 70.03828430175781 13.526179313659668
87.17332458496094 137.90115356445312 5.402707099914551
93.3999252319336 182.71868896484375 32.776180267333984
6.662273406982422 217.3989715576172 31.673513412475586
68.14350128173828 59.817195892333984 25.357511520385742
27.84361457824707 87.526611328125 42.610172271728516
36.290306091308594 54.41666030883789 39.27130126953125
5.934438228607178 152.2772674560547 8.463151931762695
82.44258117675781 70.60859680175781 13.457340240478516
85.14540100097656 110.63251495361328 7.475409984588623
89.84451293945312 196.7476806640625 52.82709503173828
6.333521366119385 205.94500732421875 31.610340118408203
73.59048461914062 85.48217010498047 53.86598587036133
65.42558288574219 39.28333282470703 50.53130340576172
22.543983459472656 89.84613037109375 45.96212387084961
73.78668975830078 148.41346740722656 22.086101531982422
87.3600082397461 198.69696044921875 68.86540222167969
88.07135009765625 205.7368927001953 4.345261573791504
67.54926300048828 83.05486297607422 49.38642883300781
27.860090255737305 173.1775360107422 40.742496490478516
33.957054138183594 50.47437286376953 27.252519607543945
67.74910736083984 105.70477294921875 43.94234085083008
29.787925720214844 178.0227813720703 55.1728515625
42.577518463134766 50.56488800048828 55.91437911987305
36.90857696533203 51.63772964477539 39.80219650268555
8.420501708984375 180.0877685546875 53.47355651855469
28.53267478942871 79.6251220703125 14.553345680236816
89.11021423339844 188.29312133789062 54.93218994140625
41.81266403198242 11.360498428344727 37.861663818359375
87.8376235961914 180.78802490234375 56.24159240722656
67.86853790283203 143.0918426513672 64.22516632080078
13.642881393432617 98.13323211669922 11.021162986755371
21.250947952270508 118.9772720336914 67.13862609863281
35.61759567260742 130.13973999023438 10.263792991638184
70.6463623046875 88.19843292236328 23.498184204101562
62.34852600097656 44.48881530761719 44.312870025634766
56.28917694091797 33.732486724853516 31.593050003051758
90.30615997314453 201.2572784423828 51.8121223449707
6.202595233917236 98.09809875488281 32.08543014526367
67.45304870605469 114.63179016113281 43.61594772338867
75.17278289794922 171.7399444580078 21.85650634765625
28.08502769470215 127.21369171142578 43.22182083129883
82.61604309082031 77.06330108642578 11.85218620300293
20.439834594726562 97.04032135009766 64.93758392333984
70.79196166992188 52.09895706176758 18.31945037841797
75.04326629638672 57.96052932739258 14.563518524169922
42.07984161376953 38.14855194091797 38.30495834350586
67.95721435546875 149.78514099121094 43.23894119262695
27.92867660522461 155.3361358642578 43.362430572509766
35.084922790527344 141.7681121826172 9.24270248413086
63.426918029785156 45.855289459228516 25.171833038330078
25.932466506958008 98.81024169921875 43.13962936401367
7.664856433868408 117.80889129638672 28.594852447509766
27.139875411987305 116.61221313476562 44.00997543334961
76.13920593261719 58.9268798828125 16.560529708862305
68.50894927978516 78.33888244628906 22.252666473388672
42.14444351196289 40.405513763427734 35.01485061645508
76.5615463256836 180.95831298828125 21.578372955322266
68.61712646484375 131.2059783935547 43.29859161376953
77.92835998535156 106.02405548095703 58.53234100341797
33.606849670410156 54.62471389770508 38.359004974365234
91.87279510498047 81.06963348388672 15.12443733215332
22.432048797607422 82.79019927978516 17.694377899169922
18.94124984741211 179.3775177001953 14.38674259185791
88.22838592529297 183.67759704589844 55.796146392822266
26.9608154296875 79.10650634765625 41.809120178222656
18.723793029785156 167.0069580078125 14.853306770324707
87.3600082397461 198.69696044921875 68.86540222167969
5.831573963165283 145.67425537109375 27.796884536743164
10.887880325317383 80.34548950195312 28.734006881713867
86.18247985839844 127.48836517333984 6.268430233001709
24.90191078186035 143.0139617919922 67.86565399169922
23.823274612426758 78.62614440917969 16.9974365234375
76.82398223876953 98.36734771728516 58.77250289916992
88.13092041015625 203.5915069580078 68.58914184570312
49.0943603515625 26.725643157958984 34.159637451171875
32.385826110839844 63.3997688293457 41.4697151184082
37.13386917114258 51.45930480957031 39.01560592651367
87.64405822753906 71.5861587524414 13.15227222442627
26.997257232666016 104.33966827392578 43.03157043457031
27.794296264648438 128.5972137451172 43.13325119018555
26.05121421813965 71.34030151367188 21.152873992919922
16.330265045166016 105.04647064208984 47.74763488769531
63.469207763671875 46.71486282348633 47.439430236816406
78.0369873046875 103.71849822998047 58.20204544067383
72.88887786865234 74.50773620605469 53.693641662597656
46.17665100097656 46.90616226196289 51.50651931762695
87.86836242675781 202.34466552734375 68.55371856689453
83.28558349609375 157.54908752441406 58.3570556640625
79.73612976074219 107.64048767089844 59.717613220214844
29.57628059387207 183.56097412109375 55.61184310913086
72.3495864868164 80.66212463378906 54.975929260253906
18.630481719970703 89.17138671875 14.592540740966797
90.31303405761719 201.06724548339844 51.91341018676758
81.64544677734375 140.7973175048828 58.43772888183594
96.923583984375 148.706298828125 17.211593627929688
82.00017547607422 148.64620971679688 58.183204650878906
13.220816612243652 47.231868743896484 38.307106018066406
4.139267921447754 115.23297119140625 60.202354431152344
5.799605369567871 142.2406463623047 27.672510147094727
25.26089859008789 68.45520782470703 22.535892486572266
17.937088012695312 215.63084411621094 13.7256441116333
43.89469528198242 40.94768524169922 36.80628967285156
95.0594253540039 96.71359252929688 15.690077781677246
35.119789123535156 171.32827758789062 10.981682777404785
82.99018859863281 83.22173309326172 10.046887397766113
68.16057586669922 139.8220977783203 43.02394485473633
95.53196716308594 109.84212493896484 57.01116180419922
12.832687377929688 78.83855438232422 28.91751480102539
25.0274658203125 65.4585189819336 20.739213943481445
85.57627868652344 122.77971649169922 7.037245750427246
26.157012939453125 70.81969451904297 21.32874298095703
96.79132843017578 136.62278747558594 17.734827041625977
25.9721622467041 83.32238006591797 42.86300277709961
68.27302551269531 53.392295837402344 40.37183380126953
67.54956817626953 63.48226547241211 50.87826156616211
21.657533645629883 81.3394546508789 17.68071937561035
67.07919311523438 45.32938003540039 21.3776912689209
15.041839599609375 107.8175048828125 48.34843444824219
32.0304069519043 151.94317626953125 48.88127136230469
78.7042007446289 104.39244842529297 58.372562408447266
8.121292114257812 200.09751892089844 53.01443099975586
95.84053039550781 196.85311889648438 17.16364288330078
18.321487426757812 146.13204956054688 15.7529878616333
32.24961853027344 90.68750762939453 12.099886894226074
91.39360809326172 146.610595703125 33.86140441894531
68.27925109863281 175.14552307128906 7.13226842880249
62.0148811340332 42.405662536621094 27.748750686645508
68.37539672851562 179.6763916015625 43.49455642700195
87.19662475585938 195.75624084472656 69.01213836669922
88.43404388427734 85.4575424194336 42.6058464050293
87.80435180664062 113.1702880859375 36.8570442199707
84.65148162841797 73.30357360839844 39.994319915771484
40.14735794067383 44.25235366821289 36.33787536621094
65.71491241455078 87.91034698486328 46.72304153442383
95.48080444335938 106.1024398803711 54.773807525634766
38.91745376586914 46.21936798095703 38.27886199951172
88.07933044433594 206.80572509765625 4.300191402435303
31.304155349731445 89.06197357177734 12.678583145141602
81.54777526855469 71.5028076171875 12.855743408203125
29.900096893310547 71.73694610595703 63.93822479248047
5.875987529754639 153.8492889404297 8.499744415283203
67.97911071777344 69.68729400634766 23.886934280395508
7.9129109382629395 128.26805114746094 8.154419898986816
84.60731506347656 96.42938995361328 8.904356956481934
31.468164443969727 86.90279388427734 13.465606689453125
88.49535369873047 117.9816665649414 68.81788635253906
6.030946254730225 154.80105590820312 27.7528076171875
9.251120567321777 103.63945770263672 55.66836166381836
23.702598571777344 70.15042114257812 20.4769344329834
68.89361572265625 59.65126037597656 49.323787689208984
44.98804473876953 29.134761810302734 34.43019485473633
96.62373352050781 137.3025665283203 17.599750518798828
71.18460845947266 51.55230712890625 17.44310188293457
36.50636672973633 50.66408920288086 40.02370834350586
20.84261131286621 84.66209411621094 17.18358039855957
5.85996150970459 151.1990966796875 8.357829093933105
4.139267921447754 115.23297119140625 60.202354431152344
38.61784744262695 43.08995056152344 37.41660690307617
4.484473705291748 180.7969970703125 10.492472648620605
5.68709135055542 93.0428466796875 29.6826171875
97.211181640625 117.79483795166016 18.224517822265625
18.485170364379883 154.562255859375 15.3319730758667
73.03457641601562 85.74604034423828 54.11845016479492
77.77181243896484 62.89415740966797 41.10470962524414
74.45930480957031 164.24459838867188 21.82472801208496
88.33802032470703 97.6869888305664 38.52758026123047
32.20998001098633 51.359806060791016 24.864959716796875
74.17818450927734 150.11143493652344 22.21904182434082
38.04917907714844 48.622310638427734 39.166141510009766
91.04015350341797 222.22833251953125 50.869380950927734
97.13053131103516 122.28376770019531 17.90452003479004
63.378170013427734 86.7896728515625 12.37392520904541
13.730783462524414 77.93492126464844 28.86833381652832
19.822343826293945 97.6138687133789 66.35649108886719
18.95055389404297 180.1602325439453 14.358348846435547
65.20217895507812 50.141605377197266 45.97754669189453
89.36582946777344 134.02005004882812 68.11214447021484
71.80675506591797 106.20386505126953 23.40022087097168
