45.08565139770508 37.5673713684082 -4.530284404754639
45.65354901268368 36.96905681065151 -2.4662007157291685
45.457772850990295 36.269961297512054 0.05917273748491425
45.47342243442288 35.263445544552496 4.302544449202039
45.64483950464859 35.29473283448195 8.67862325634448
46.3541093104094 35.30260339755456 13.206671557380158
46.890414637904016 35.61366424765638 17.83107481720627
47.78332258020557 35.706070390137484 22.17136240305391
48.04253397902397 36.240094073831216 27.3480949205895
49.37232246715061 35.91268149528714 31.11863051198464
50.526156799035135 36.075982921500724 35.07413974006055
55.47955393791199 43.48328160417491 39.53906422647937
57.145363245254906 45.901862067850224 42.160455733079175
62.22637992412046 44.86209338140591 46.52432671337996
48.9255230925804 50.00962987500568 45.58836600725041
46.36288074277482 52.58973972752409 48.3497164024497
43.73346562655467 55.15259235310105 50.79367205781757
40.88254664494441 57.327014215391685 53.498223352216485
38.33525422714299 58.864684207245006 57.142804551022245
37.47992253303528 60.879685719807945 50.11401112874349
34.480122566223145 63.807692885398865 47.62324273586273
31.897071592269405 66.45889897500315 48.35215759277344
30.510041999816895 67.8975830078125 49.693003463745114
35.76143301183527 60.221097859469324 60.79912378137762
33.491291283375 61.34651402335855 64.40123162340763
31.554217507353925 62.34447479248047 68.45102050241115
29.51823350773301 63.111722245327265 72.35889186415561
27.392410994695386 63.78451441375302 76.44441595659569
25.652854596414873 64.3382412848934 80.31739887114495
23.983180908929732 65.04592236605558 84.55836800579385
22.678462632358336 65.15732106371217 88.99484083017407
21.21133553981781 68.20052242279053 84.95079755783081
21.360053295559354 65.41409950256347 93.26207406785753
20.276167603226394 65.64921470160957 97.553508174312
19.43209696899761 66.06345124678178 101.96183195981112
17.949561578418137 66.83514096321316 105.86070065979564
13.27815021480526 68.91207335875914 108.15758122624578
20.054316276361135 66.6309276612337 111.0080276363152
20.4952330441819 66.71215678736107 115.31043778252356
21.230325541365037 66.95900740317248 120.0687814415048
21.664265604302436 67.12804722549892 124.18154695718596
22.26816320873442 67.23226717994326 128.92369588216147
22.869014069274233 67.51927092835143 133.12046176784642
23.790533164112837 67.88762389507491 137.61524176843386
24.76970701671782 67.87227579752604 142.13935038248698
25.58224977231493 67.75124650843003 146.6737003700406
26.31812960641426 67.39173889160156 151.0492635358844
26.7659205888447 67.36738877547414 155.74199234811883
26.751983367290695 67.45596266284431 160.27344772496176
26.862973095121838 67.32528076171874 164.65017613002232
26.8883668082101 67.33159724644253 169.029247320266
26.87836584260192 67.45984997326815 173.6134073764463
27.230994252597583 67.763500438017 178.3301654142492
27.649962687837906 68.05382991182631 182.7024480847345
27.808517038822174 68.31320106983185 186.84998059272766
27.959882511812097 68.73381379071404 191.85689634435317
28.186387407606926 69.42823481905288 196.09449016184047
28.259381141662598 70.17412841796875 200.68912292480468
29.011987760469513 71.1749373596984 205.27257666649757
29.858183661172557 71.80771778905114 210.05429893316224
30.160392570495606 72.0433723449707 214.26137212117513
28.99852556652493 72.23514790005154 218.90367804633246
27.793011903762817 72.28770112991333 222.1712622642517
11.171309212657892 69.69137024210993 111.66213119364231
9.912727948998203 69.78779140440356 115.88622149299172
9.103452308972676 69.93197714487711 120.46175181070963
8.541461655071803 70.02521548952375 124.9073006766183
8.486359675725302 70.10713311397669 129.4711211233428
8.494172653349318 70.0091953844127 134.33892217957148
8.42745027786646 70.18141409067007 138.02012908153046
8.80483207162821 70.12916924818506 142.9367636914523
8.99207896987597 70.23081223169963 147.81789112091064
8.961570353447636 70.10927968085566 152.20238755624504
9.01376194673426 70.34773766012752 156.41551711138558
9.12922583685981 70.51889050196088 161.0820765419612
9.271794251721314 70.66222219756155 165.90462655732125
9.008187462301816 70.79059080236098 170.68553628360524
8.638904487385469 70.94118466096766 175.2096539665671
8.695638298988342 71.26932705773248 179.73071458604602
8.643733991335516 71.64348466428991 184.1057108003799
8.365926051485365 71.58769380873528 188.8554935178895
8.098185254816423 70.99504290129009 193.24284041555305
7.990767900760357 70.65959930419922 197.55969385000375
7.981757559866275 70.51897027357569 202.36370158645343
8.210198607811561 69.9375957782452 206.72091064453124
8.3335778279738 69.25802612304688 211.34069720181552
8.418418163723416 68.58130238850912 215.9197028266059
8.604663139165835 68.3724769769713 220.26676515091296
64.50234574835918 49.006407374657954 38.59614559115492
67.17179534014534 52.78116443110447 39.485728132958506
67.4137822105771 44.368455614362446 35.63950992765881
70.86284855433873 42.06388201032366 33.46604574294317
74.62888050079346 40.22716365541731 31.593284436634608
78.7810674493963 38.974625119295986 30.309511080655184
82.69851541519165 37.82392899195353 30.141319632530212
66.16841670445034 50.34819003513881 36.40745571681431
70.21249257601224 56.23112624730819 39.62474947709303
74.0441497369861 59.01309623447716 41.48479699750319
67.41795747176461 58.806728528893515 36.40382683795431
76.41137336282169 61.10161182179171 44.335013490564684
77.32555930845199 60.05566203209661 37.83319319448164
80.66264843940735 60.37981820106506 34.608640253543854
82.95002824832231 63.504696283584984 32.223874556712616
82.84343225815716 57.78932369456572 34.315376954920154
85.00165252685547 55.283792622884114 36.794385782877605
84.6827123541581 65.29406778435958 30.48374376798931
78.39512927715595 63.7187855060284 47.54193455622747
82.11518592022836 64.57313488899393 50.20800200929033
74.03367360432942 66.53325780232747 50.102377119518465
71.27428979140062 69.37174547635593 52.94096902700571
68.75426124123966 71.87451441147748 55.46050823436064
66.29407274400866 74.63742890229096 58.16757903227935
67.67795377789122 77.45497085108902 61.03566360473633
70.62688387357272 78.29730537610176 63.99640440329527
72.85227394104004 76.31355595588684 66.39008450508118
86.23900969132133 64.71422162263289 53.820463595183
88.46202827567485 66.49065182813958 56.25121472486809
89.11432520548503 63.26541392008463 52.28992377387153
90.82927656173706 64.39146900177002 50.46785593032837
91.75461823599679 68.37138516562325 59.9287770816258
93.52372528076172 68.80715606689454 63.14387504577637
94.69347518920898 68.93426452636719 68.0094287109375
94.73841742749484 69.17430532203531 72.47645453686984
92.10477850172255 69.65561760796442 76.2720521291097
89.63638725280762 69.10158233642578 78.6356357574463
64.47127193614749 44.39081981479512 49.91068367675282
65.75490526808906 47.86368421836407 54.04415662837602
68.75955496708899 40.65768575876561 52.92716112095196
71.98021995730517 40.62273211595489 56.21403726717321
75.1963691142068 40.62391357042303 59.25773886305776
78.68969071332147 40.164658969056376 62.40093394260781
81.20839182535808 40.48410278070168 66.0358425202917
83.16318583170573 36.46013509114584 60.203593190511064
86.2633766546482 35.495516660736826 61.21079696097025
88.46331442556074 30.84620967988045 65.27694603704637
88.26100158691406 38.12289810180664 59.35668182373047
83.0861249247556 40.6944057928822 70.13782917002521
84.50628995688963 40.65699317238548 74.54373697388223
85.89641890712291 40.759292005826644 78.92502964808288
86.9718831079246 40.883297169702296 83.15092563064846
88.40769031820776 41.68410957022889 87.28797839439079
87.88193373792754 39.82981632262703 92.21449273777759
91.30111901801929 45.96776868585955 89.32422898945056
92.54811788009386 48.166730234178445 93.28662044719114
93.56597452897292 50.52860296689547 97.25765132904053
94.46548708279927 52.2872420946757 101.22971947987874
95.27465434014043 53.990008004104034 105.15929519073873
95.48928177662386 56.39866819137182 109.0539327768179
96.13525561282509 57.65205137353195 113.53312522486637
96.91486358642578 58.23179651343304 117.95961678546408
97.41322028636932 58.49271494150162 122.6445255279541
97.670628095928 58.47412325206556 126.7420079080682
98.01386210957511 57.620082480008485 131.36602032770875
98.486132150673 56.93994650783309 135.92019432711314
98.8135913213094 56.57284132639567 140.792814678616
98.87382911233341 56.33760996425853 145.19305532118852
98.98249200674204 55.09437876481276 149.38847996638373
98.8661729292436 54.41290477405895 154.31253578879617
98.83715476989747 55.197601636250816 158.66365483601888
98.83504239974484 56.3013968313894 162.6586429226783
98.34002901160198 57.16059676460598 167.3140686698582
97.92135253319374 57.142129311194786 171.70190635094275
87.8511705994606 38.84854310750961 96.71926242113113
87.91994659660398 38.09455070199893 101.01940900225972
88.10144910241803 37.52045505882328 105.47519305628589
88.24780204079367 37.07501766110255 109.91587583683739
88.13268682306463 36.555128340287645 114.66162060824307
88.47999869452582 36.18819808959961 118.82711816212488
88.74329942272556 35.68537980766707 123.50539734543011
89.01411833081927 35.47730050768171 127.74482999529157
89.23527581842096 35.25382215482695 132.198248236029
89.73637502333698 34.91968442879471 136.64526247510722
90.48835516757653 34.52671063532595 141.12614916191725
91.37432797749837 34.05155563354492 145.67084515889485
91.99840308879983 33.83215818734005 149.88633885876885
92.63116730365556 33.83311796679939 154.49505190505195
92.78040231977191 33.79174073537191 159.13336290631975
92.65535633834367 33.683262185952096 163.49016091258255
92.85708406747105 33.58072165983269 168.3401761342244
93.01943322115166 33.208737173745796 172.81090723082076
93.19305989583333 33.15853627522787 177.54376831054688
93.34148685352223 32.92711783744193 181.86752195616026
93.21704689232078 32.59914516758274 186.34503648087784
93.3151672135538 31.815148083131703 190.85386817135029
93.60188764684341 30.699690089506262 195.43800668155447
93.97087272268827 29.74564574194736 199.64667198306225
94.39782465421237 28.904402292691746 204.55222525963416
94.99879954411433 28.241884231567383 208.45981979370117
95.47257258974273 27.44403937767292 213.28702729323814
95.41961372189405 25.86288210240806 218.45994009622714
95.2342643737793 24.975001017252605 221.4703114827474
67.2862361073494 48.80483692884445 58.08141711354256
68.66000787835372 49.93024512341148 62.36674744204471
69.81195421916682 51.03763143027701 66.46157774443411
70.79854473625262 51.83028579659479 70.80652531889297
71.53438080463212 52.65909986725378 75.07564835695877
71.25483707203584 52.48952689675724 79.65485258214613
73.6609653673674 54.54015969871578 83.74039031867694
66.97391344553017 48.930638945246315 83.18445155132248
66.14603252687316 47.21925445224928 87.3621961068416
66.188586635444 45.78039387710222 91.69946329830258
66.72141155213801 45.231434742002996 96.19249568094735
67.16777696917134 44.77727287046371 100.56495045077416
67.52790562186654 44.27149464764933 105.06952372873862
67.68624384600417 44.1394812505048 109.35299229442626
67.68790469850812 43.662093707493376 113.723532472338
67.74065338619171 43.130251657395135 118.4696434263199
67.93272664595624 43.15213616040288 122.7508430480957
68.14871087475358 43.050363986291615 127.35908914726471
68.35987091064453 43.139532304846725 131.69985165803328
68.35883205376783 43.03767835746691 136.709829089711
68.18323165379213 43.199542613511674 141.0300184957097
67.97338537918894 43.182499012194185 145.46805500231292
67.99296471831995 43.24814448225389 150.30061774297593
68.1149144547709 43.500290388471626 154.60627763726737
68.26577468540357 43.84827410656473 159.32750735075578
68.30584650039673 44.02887592315674 163.7261381149292
68.50992277626679 43.86333640267916 167.95398533901323
68.47429218511472 43.72710594089552 173.04622957076148
68.45762689562811 43.57175274171691 177.27297221750453
68.51869883681789 43.49963488723292 181.8408334905451
68.6744352437682 43.27321081646418 186.33402756513175
68.54733877470998 43.4555005160245 191.08879297429866
68.31703560812431 43.56338326972828 195.67586825186746
68.12775039672852 43.62584064624928 199.95989114266854
67.75511653606708 43.700055195735054 204.2732241703914
67.36256707232931 43.563512387483016 209.8569511745287
67.30383549180142 43.180253317189774 213.5025336686955
67.75472436949264 42.48050663083099 218.59280005166696
68.16895147470328 42.23679777292105 221.92176173283502
74.59978165346034 55.48672274982228 88.04632313111249
75.60994308135089 56.35741775176104 92.41072363011978
76.34073709704212 57.32891995144873 96.62897845396061
76.34908222144759 58.65465681317826 100.88436387290417
78.22910681352928 58.88279455480441 105.10605384934117
72.54545753543117 61.34985893313624 104.03482658322118
70.62763908727845 62.33796820000036 107.93639168810489
69.6578809061358 62.8429663565851 112.23804898415843
69.03650350668995 63.25010291817262 116.56466289402283
68.50715666835748 63.619532872172236 121.12288191712018
68.38622556856977 64.1186720995399 125.70637667276026
68.07874069213867 63.96403330022638 130.12994613647462
67.95543309693696 63.86371378744802 134.4159202985866
67.8849863955849 63.86522369384765 139.16887512207032
67.88655533329133 63.979199563303304 143.79937908213626
68.0518046985973 63.61262314536355 148.38904599276455
68.0050099431252 63.71493425174635 153.17746532206633
68.3859604608445 63.76641035534087 157.49190673828124
68.83089756060251 63.43543586248084 161.9915010476414
69.03487479977491 63.14747619628906 166.32213964694884
68.86409818971312 63.13553094244622 170.74660402768617
68.63057637532552 63.40764546712239 175.7185624186198
68.57809757541966 63.635867866309916 179.7588822648332
68.56515561617337 63.92805524972769 184.41597865178034
69.27615308004712 63.69850225297232 189.12989976671008
69.84209624814315 63.809996645215534 193.6217275270274
70.44448975154332 63.65418985911778 198.43965121677942
71.08467999626609 63.74677650601256 202.61765423943015
71.39752651396252 63.822716940016974 207.34400903610955
71.96695563906715 63.64269002278646 211.89952523367745
72.28769640652638 63.637888854404665 216.2623481030734
72.3429706920277 63.87149623524059 221.2336894642223
79.77148493053843 59.99887568279377 109.5135954329111
81.38141183853149 61.275213956832886 113.20428403218587
84.88849889496227 64.88509182871124 115.21416501645689
80.5886596075379 59.47993782723304 118.62362323421063
80.98206981177469 59.184315209249846 122.99422862228838
81.13018754323323 58.90317077636719 127.47772185007732
81.54470966771706 58.775929952405164 132.25070048853294
81.5511703491211 58.73702002408211 136.3085443597091
81.75497384164848 58.496117610557405 141.11685165704466
82.0458254814148 58.28263077735901 145.60045986175538
82.22576149561073 58.35071543211578 150.02777985603578
82.77954579548664 58.35797302981457 154.53689538427147
83.53269417678254 58.35505507263956 159.14113839064973
84.20192093447031 58.18832622665957 163.3049081089985
85.15164214295227 57.88546321918438 167.98890230253144
86.0893981747511 57.374289070687645 172.37129937148677
86.95939466688368 56.87312724855211 176.5457288953993
87.87967856533557 56.2474388214479 181.23636746693808
88.63524946381774 55.47243321092823 185.65627549569817
89.2194146328285 54.69616861812404 189.79191539326652
89.71982788085937 53.505282948811846 194.6821299235026
90.06371768015735 52.26914380631357 199.03800618873453
90.58999427159627 51.551700035730995 203.95320733388266
90.81011693617877 51.27622387455959 207.49311619178923
91.2737769232856 51.23701926337348 212.64183993869358
91.33251641013406 51.161490469267875 217.72779776833275
91.09922458814538 50.84828509455142 222.27077782672384
86.39498467401627 65.73218984341403 119.4488335005734
87.62118369654605 67.96210861206055 117.14563048513313
90.35294556617737 70.60255718231201 119.95101284980774
92.77563692175823 73.03280424035114 122.35476750912873
94.8107056250939 75.11164767925555 124.32197541456956
87.38539578216245 66.4740103519324 123.91899324667574
88.22765046647451 67.13294212563524 127.88131299065155
88.93837217851119 67.66525982943448 132.18888827237217
89.83910347211479 68.31739572959371 137.0614400429301
90.45986465785815 68.87555429209833 141.10504233318827
90.47362353754978 69.6035385131836 145.63517940745635
90.27184407094892 70.11446003431685 150.34321885698296
90.28338940223951 70.41098776828038 154.66554363122148
90.34563838111029 70.39393170674641 159.05840598212347
89.84726982116699 70.41042804718018 163.6635004043579
88.92528147977941 70.39979104434742 168.31511050953586
88.33572387695312 70.15593533902555 172.98213917500263
88.36176540977077 69.97625672189812 176.85504652324477
88.10371955665383 69.67305167945656 181.55446047396273
87.65663784251494 69.26698087804458 185.96787863338696
87.15979652974143 69.0178905885611 190.8573389765042
87.1277140208653 68.96439852033343 195.17717579432897
87.49178872789655 68.75401878356934 199.79849106924874
88.40421930948894 68.51138475206163 204.23448972348814
89.59428143501282 68.13500607013702 208.8197865486145
90.16559326171875 67.70691604614258 213.6444418334961
90.13280622694228 67.57614593505859 217.63414204915364
90.85917324490018 68.09696909586589 221.8382548014323
41.674378230062764 35.7169435436806 40.00989199863391
38.95157177495022 34.79596019071691 43.38905721926222
45.086185812950134 32.0774011015892 43.162914991378784
47.46367425629587 29.67432536500873 45.53776550292969
35.278879489040705 29.560735339524424 45.50298894070424
37.328152463327044 37.86222254684548 48.113577001235065
35.18454451375193 39.4700230932855 51.828858709954595
34.07628779039315 39.800224047180606 56.38340993299552
30.829104314084912 44.25866198930584 51.20909912859807
27.926776474597407 47.10274797327378 51.988393895766315
24.4827273194219 50.48208220575897 52.7246858301297
21.148156364009065 53.78297582662331 52.84625596820184
17.89132336775462 57.018192291259766 53.06553562482198
14.543094656202529 60.00715060763889 53.64958902994792
10.492661539713541 62.09912094116211 54.24900665283203
9.71534812450409 61.438132762908936 57.79698896408081
9.23711887995402 63.07588195800781 51.51726849873861
32.72706463427692 40.41957023647005 60.888769367574405
31.441582322978288 40.97471359307817 65.04702912474708
30.371456264068723 41.4315734333053 69.46229615082612
29.21481663507867 41.956875711367935 73.65709306138733
28.265892181106395 42.24336928741107 78.20087673636897
27.568182309468586 42.566958154950825 82.68254876515222
26.6193573206358 43.1109575916069 86.9740418834491
25.111783456802367 44.154501872592505 90.92977470821805
26.71630153227388 43.346982505884064 96.11298151766316
20.518835497574067 46.604589220503684 93.37288698008362
18.10720786363065 47.77895298118363 97.43054916473206
17.0498497467041 47.72453594970703 101.56346868896485
14.168963945828951 50.70180566901835 97.2660159901676
11.769024254439714 53.242265131566434 100.57722740668756
9.254159395511333 55.72179838327261 103.61816450265738
6.892293410831027 58.15689646402995 106.28096330430773
4.900197826325893 60.43480384349823 110.0949354171753
4.23395390311877 60.384111404418945 114.5140905380249
4.128937309438532 58.042673631147906 117.66254459727894
5.10435163974762 54.6221491206776 120.98823530023748
6.259758551915486 53.13576571146647 122.51467386881511
15.683215696915337 47.85275351482889 105.78697967529297
14.64796472150226 48.14462528672329 110.21035470888596
13.642434943806041 48.305857328935105 114.40056540749289
12.64140405326054 48.47526191842967 118.7094471372407
11.794674445171745 48.73728736566038 123.19641572601941
10.955747984289154 49.1034532562504 127.68278447593131
10.397075475272485 49.46094942901094 132.18876635018043
9.94455229319059 49.87486248749953 136.73058025653546
9.588682264089584 50.2016057173411 141.3684026400248
9.370143920183182 50.54187369346619 145.60075855255127
9.24428481617193 51.00867532313555 150.37064054642602
9.090802192687988 51.567083019680446 154.9025670369466
8.815181466597545 52.06633323959157 159.06410970567148
8.613697019116632 52.521030820649244 163.7418212890625
8.64827937614627 52.990062620581654 168.29187160584985
8.50543670165233 53.35438317518968 172.53648083026593
8.471847976957049 53.46604896727062 177.38659758794876
8.20778387855081 53.3301025390625 182.14941334443932
8.110315205500676 53.10171579214243 186.3774423452524
8.094384625554085 53.12238949537277 191.25625252723694
8.136996080290597 53.08507897718897 195.68852550578566
8.074791986115125 53.02585508385483 199.88462954151387
7.872430820091098 52.460987913842295 204.86428085027956
7.898333352545033 52.028939039810844 209.1137758337933
7.863410456138745 51.53556944194593 213.90734782971833
7.864706973234813 50.998915672302246 218.32021967569986
7.918460915728313 50.36984671615973 222.56047988519435
26.845013986719717 43.348485568962474 100.71708154206229
27.67400153773425 43.80186424113561 104.90722608034496
27.099122908057236 43.284573113046044 109.67478901002465
30.967936833699543 44.43056276109483 106.251953125
31.280162208958675 47.91286267732319 104.55117115221526
27.45899489868519 43.32588552874188 114.10887900064158
27.592051957782946 43.46204231217591 118.63858139305783
27.558705889312915 43.53024372974588 123.1903359184052
27.67558799291912 43.63213298195287 127.65212596090217
27.77304904101646 43.670331641419295 132.0419158935547
27.794625028350648 43.91729515120828 136.26893480289618
27.892471452192826 43.81243787823301 140.87242718320906
28.05859880816212 43.82651209962961 145.51579849496073
29.229473174155295 44.74913540401974 149.7256769403681
28.080049106992526 44.07740012859476 153.88431659566945
31.926722951682216 48.42770519026791 151.6721288841891
31.76891221391394 50.502279930926385 155.637015484749
30.84909099003054 52.06062835117556 160.24021839645673
30.239464805239724 53.16909662882487 164.42077182588122
29.845734203563016 54.10429252175724 169.1800666360294
29.674298854101274 54.66286091577439 173.6190665108817
29.669107621715916 55.04886091909101 177.79539908132244
29.59615938163098 55.59703892837336 182.7210738570602
29.45819570147802 56.12433751424154 187.25613597082713
29.216299891471863 56.44385868310928 191.49135088920593
29.272215625696013 56.690549750077096 196.2633241352282
29.049529169120042 57.29005043179381 201.02331004423255
28.78882300636985 57.77491586858576 205.42165277654473
28.667708969116212 58.42636459350586 209.34274841308593
28.350277526038035 59.05165849413191 214.74440819876534
28.839174120049726 59.25901051571495 219.3197330675627
29.03757449558803 59.20106324695406 222.47580101376488
28.015340368431733 42.79425917476057 159.01239767419287
25.55757987499237 48.943136850992836 155.90917015075684
25.955301163044382 51.96447145177963 158.8494132833278
28.00262079006288 54.96310750449576 161.95220054068216
28.01374357873267 42.02894516829606 163.50658005934494
27.995593227557283 41.42853705562762 167.80152733646221
27.981713394323986 40.82714569568634 172.5285522143046
27.8348035561411 40.31197974556371 177.0731066653603
27.74395968697288 40.03901279333866 182.07919427120325
28.010019749403 39.67669606208801 186.25212860107422
28.23253804720365 39.46992445725661 190.67404057429388
28.224382500899466 39.15403526707699 195.10795004326002
28.423493717992027 38.75469127921171 199.79637287938317
28.560627017702377 38.52200126647949 204.52290099007743
28.633884988982103 38.393865782639075 208.37475796403555
28.571913809146523 38.23572295566775 213.23351417397552
28.628257942199706 38.144208908081055 218.644267578125
28.663651914012675 37.88513705195213 222.53487723214286
33.10348861226106 28.96162329856239 48.62734970202945
31.379577027426826 25.340801662868923 43.82436731126573
28.752245759064298 22.141568003960376 43.3563357659106
24.944695725160486 18.979742835549747 44.646363482755774
22.732280935559952 16.1238734126091 46.54325573784964
17.98510250515408 13.718278863694932 47.672198910183376
28.05975670284695 13.35024325052897 49.72669908735487
20.43257439136505 14.03804737329483 49.142579197883606
15.082477927207947 11.350190353393554 49.22532939910889
11.659103981436115 8.349749434484194 50.91498753795885
9.20557341856115 8.791981921476477 54.81368872698616
9.91236662864685 6.3162117174693515 48.21131978716169
6.732415738313095 8.612553928209389 57.22873737501062
31.39044054934853 26.411598352800336 52.229394223397236
28.614762514829636 34.58666968345642 46.785547494888306
25.31512532915388 37.39237685430618 45.66967488848974
21.524556548507125 39.6215034061008 44.67044681972928
17.092266652642227 41.2320357066829 44.56336956489377
13.609059939017662 38.55726117354173 46.96686524611253
10.376508690590082 36.06802297192951 48.94021881458371
7.093669371171431 32.74641188708219 50.10100728815252
5.711969895796343 31.316252274946734 51.13211995905096
15.59753942489624 43.38637504577637 44.72202491760254
15.423393355475532 41.876031239827476 42.907738579644096
29.493874016930075 24.835972154841702 56.35190148914562
27.930543843672364 23.265743479070306 60.25325917200065
26.33169131166606 22.135118683580597 64.43320797750043
24.928847234389362 22.084543326882756 68.49334522920496
24.59483053246323 19.604201459560265 72.8216199550499
20.41250628062657 27.28018433707101 70.98062880379813
17.199234932661057 28.040700808167458 74.10723441839218
14.217982790049385 28.552996831781723 77.06178278081558
11.377012359562205 28.334392490671643 80.20267680153918
8.690178652332254 28.259178631926236 84.1083163431246
6.97337785383471 28.130786272944235 88.19738655349835
6.214599412186701 29.66574544117863 92.65450699885089
5.8400074070335455 31.20121086968316 96.63356598422058
5.808206790831031 32.84755164045629 101.10636498676082
5.697946799062464 32.41823337025886 105.10732180184692
6.081441419933914 29.457248180284413 108.52766712433701
7.694639694892754 26.559793908717268 111.80844833891271
9.006749093994614 26.665227934371593 115.64248562598414
7.031083686598416 29.38700406304721 118.92968230411924
4.148178943272295 31.50142973866956 121.90612497000859
4.016758662178403 30.583514258975075 125.60673239571707
5.375593144669492 28.866142240344967 129.37273589566223
5.407523304583078 28.333970380116657 134.33984687529414
5.820216792601126 28.017661924715394 138.49089346991644
5.977807920057695 27.806559615082794 143.50877782800694
6.028667438861936 27.84841062856275 147.33740553745002
5.9476781797409055 27.879670028686522 152.33100082397462
6.188303229388069 27.999429253970874 156.57275929170495
6.278365550321691 28.54129421009737 161.3561690386604
6.569881995519002 29.119296465164577 165.7809849274464
6.997905999841825 29.536879929018692 170.12645947093694
7.6609967570555835 29.7477734716315 174.65439384861997
8.653371480795053 30.249314601604755 178.97525239602115
9.226886709531149 30.643806510501438 183.79526477389865
8.996416954767136 31.088646813044473 187.67934381394159
7.253571528422682 31.5096310724186 192.07013422326196
6.485299713206741 31.400415780409325 196.69046538730836
6.25647763283022 31.5313815147646 201.4816109441942
6.336929504687969 31.554731779832107 206.12022024301382
6.470764392461533 31.695756569886818 210.2518075796274
6.62697127807972 31.740732592205667 215.2754101420558
6.397825801372528 31.557424354553223 218.79089012145997
24.72134072813269 17.768922366834666 76.97678128595221
22.647217255604417 17.526402509665186 81.3454256983246
28.765928729686863 14.816936767179202 79.99203386493758
30.345455018736477 13.702812935808579 84.07244675451045
31.59157776188206 12.992570593550399 88.27963133116026
33.1030261408199 12.200353649529545 92.74581857161088
33.70134420243521 12.544474563901387 97.08639314439561
35.96761147181193 8.840805133183798 93.50915813446045
34.51883910606647 12.53823839384934 101.81846181935278
34.9858556129563 12.528829252216179 106.13910830860407
35.22124726431711 12.3120819424826 110.48246843852694
35.737645024838656 12.079126586084781 115.26700699847677
36.056287236960536 11.845005644373147 119.14193371692336
35.636858690966356 10.526648426915074 123.84611346270587
39.05544722707648 15.981783465335244 119.97444072522615
35.549027611227594 10.137675958521227 128.24407676889115
35.45646343994141 9.851495002746582 132.7009432373047
35.20476580129086 9.559849739074707 137.4274409025618
35.003562798660795 9.279276965709215 141.74177414111875
34.95565076307817 9.165946570309726 145.9857853976163
34.94335185780245 9.29082446939805 150.7734484205059
34.92936668395996 9.878769207000733 155.5059816148546
35.004975182669504 10.531059696560813 159.7998415629069
34.97595510175151 10.771835296384749 164.30877554288475
35.14049016316732 10.894349136352538 168.78684102376303
35.31709876150455 11.21884511551767 173.25098390399285
35.162256612406146 9.621871688149191 177.6462786785968
36.455501556396484 14.934254521908967 174.8827786652938
35.02761626966072 9.51975323937156 182.30537067760122
34.77567436325718 9.453000108960648 187.1967859402509
34.75271304448446 9.466146561834547 191.62820137871637
34.738083726268705 9.575045472484524 196.47324849791445
34.68674401675953 10.186137395746568 200.77517071892234
34.315450629409476 10.594385088706503 205.33742881307796
33.76048411879429 10.711559073869573 209.50466706031978
33.214913566157506 10.660590459715646 214.33682222186394
32.880006990934675 10.035644681830155 218.9874078850997
32.63651752471924 9.506089162826537 221.73821640014648
21.467929866826424 16.750545604206692 85.57425828737634
19.806671320323876 15.283175037753198 89.60657181278351
15.946679987226213 11.898978655678885 91.86951931544712
19.87700530229989 16.03420116133609 94.61940105890824
19.419812456766763 15.939981691042583 99.00289783477783
19.15804250221553 16.01977466222808 103.43654680627537
18.746701362437772 16.032177043140383 108.12889862060547
18.535819684305498 16.09137786588361 112.61845804029896
18.2465539820054 16.235204332015094 117.41593289842793
18.172953549553366 16.297668136468456 121.59636579241071
17.99363671030317 16.399942415101187 126.2471011025565
18.027196437388927 16.479449486947274 130.37190975154843
18.291866378028793 16.270335546814568 135.2528216673596
18.394456989360304 16.253277625677722 139.48945214613428
18.481758672137595 16.003322579139887 144.09679359613463
18.588537555270726 15.6856582959493 148.6652584499783
18.562152783895275 15.390325261145524 153.1298656660257
18.52662521280268 15.166654638064806 157.88834274456065
18.48822244008382 14.870143403609594 162.31720765431723
18.69545736620503 14.785614229017689 167.04920024256552
18.84058372790997 14.815552687033628 171.29879389053735
18.864090112539436 14.73381278453729 175.72250620524088
18.939762625583384 14.383043300273807 180.42331145530522
19.109631650588092 14.076575756072998 185.01969550637637
19.202961613150205 13.779639819089104 189.8688637228573
19.339740128352723 13.500110987959237 193.98195674501616
19.24874938802516 13.46657140204247 198.59889805570563
19.099435497732724 13.445658599629121 203.3465991300695
18.821083689844887 13.293768705323686 208.42581744526709
18.28224731073147 13.452548003778226 212.77022422232278
17.75864353514554 13.746140898319712 217.0802521287349
17.377839131788775 14.164997599341653 221.9613720286976
13.966057789251671 11.08736044723795 95.52402425256575
14.282257556915283 9.979899692535401 89.48734741210937
12.466880586412218 10.867387277108651 100.16386540730794
10.038614164079938 11.765967805044992 97.48802490234375
8.27766363961356 11.038147517613002 99.26770673479352
11.245906482233066 10.740015787498974 104.6004408363984
10.408903396735758 10.094522524688204 108.5707861043639
9.866422960835118 9.636533175745319 113.09706349526682
9.332444857037256 9.241816323900979 117.60061730278863
8.653040846188864 8.761484583218893 122.15979614257813
8.262244573006264 8.241550743579865 126.42537806584285
7.777459954793474 7.856926297719499 130.6480716941631
7.1998999977111815 7.831427717208863 135.34644882202147
6.703926669699805 8.08713293501309 139.71481895446777
6.263893934813413 8.283684567971664 144.2987627549605
5.904146000019555 8.32460736765445 148.47855058688563
5.938315337466211 8.394728316474207 153.1339910448212
5.521272962233599 8.752514670876895 158.12523301068475
5.126810176463067 8.958325458478324 162.8103937076617
4.890139327329748 9.472483399335076 166.9749335793888
4.665400269665295 9.81971102123019 171.71482037894333
4.415901196797689 10.047641410827637 176.21506978352863
4.455852898684415 10.413789439510989 180.66036531522676
4.723024796748507 10.578962851261746 185.03331281136775
4.965171575546265 10.967840126582555 189.80850764683314
5.24571909223284 11.10524134202437 194.31368324973366
5.321516821119521 11.249245219760471 198.9502716064453
5.3212255325870235 11.418407993040223 203.44820569909137
5.175341362648822 11.220417489396764 208.05685165080618
5.295337077549526 11.233768136160714 212.93341849190847
5.385764862628693 11.169341330832623 217.1037191837392
5.597666501998901 10.87710440158844 221.36154222488403
56.2825360647062 30.405859125338917 37.40114971874206
59.614126516848195 28.356024612374856 40.8885522180674
62.231408944451005 26.365753440191025 43.5065898086662
64.52295947985702 24.843369863274393 47.23645835619294
66.60891679617075 21.648570500887356 36.95211124420166
69.43294048309326 18.84431109428406 34.980571556091306
72.75739459991455 15.563550543785095 33.613553047180176
75.53278764088948 12.78503700097402 33.26590450604757
79.09747982025146 9.418270775250026 34.074385574885774
81.87285723005023 7.265223128455026 34.13461753300258
67.73714986661585 20.41239294967031 47.83024305638259
65.80432947898397 25.68098234838369 52.11584562963369
66.97330576128664 25.335536636082473 56.44321262730961
67.84226358237387 24.803417758781368 60.836495824220805
68.55560069066571 24.373647893926755 65.34030972019772
68.85892824889308 24.045021376458767 69.86149345156294
69.12343455626902 23.337151274216914 74.02710187118666
68.96237515443123 22.560715675354004 78.61350001904789
66.23450646471622 19.199573360272307 81.68929979694424
69.8537641797747 22.96808577946254 82.96706085205078
70.38397571402537 23.064419276277786 87.65771785252531
70.89382097197742 23.19603237679334 91.91569246121539
71.3064951578776 23.541084713406033 96.28435013382523
71.74662315924436 23.52434045905309 101.10418246439751
72.0873280843099 23.49819951057434 105.61070620218912
72.39339149475097 23.781961135864258 109.59780319213867
72.63074586976249 23.749038102491845 114.34935609349665
73.1902752269398 23.7330433585427 118.8485377225009
73.54060377641157 23.35033227747137 123.06980590820312
73.69257569544524 23.166108196221508 127.59121348556963
73.90086606343587 22.806828180948894 132.1192273457845
73.8410472509996 22.556401918519217 136.92796973462376
73.6601808565157 22.33095105489095 141.12262265317074
73.48997834858142 22.262025150499845 145.5906853926809
73.9303254589592 22.172749922447597 149.96270704760994
74.01118767398528 22.054486746075508 154.60283792429956
74.23957022842096 21.95077892225616 159.45592467638912
74.4846838873786 21.85386727307294 163.9701962857633
74.67010185935281 21.723712942816995 168.0550129630349
75.21480325552133 21.73367020324036 172.54930047674495
75.84102700770586 21.743957366066418 177.11621988230738
76.56008512582352 21.578604370800416 181.4107923365351
76.73513082730568 21.51967262009443 186.1824726169392
76.56560484568278 21.51710428131951 190.93249384562174
76.38228065380152 21.549957054248754 195.74780981091484
76.23255448774857 21.776787809892134 200.1787880637429
76.11623094666679 21.912208053300965 204.63983355828051
75.66072859587493 22.0450116969921 209.18135099057798
74.96344551673302 22.287585808680607 213.75319789006159
74.25185949152166 22.38726420836015 218.28173620050603
73.65028347439237 22.400238291422525 222.4438934326172
65.63968863651671 16.36103538644725 84.95311716013941
65.39253604412079 13.712270122766494 88.81698536872864
66.22639393356611 12.619571050008139 92.92790793172968
66.4677674787758 11.475360195132067 97.47826112621892
66.837548828125 10.497691504160564 101.96745115915934
67.17413856447205 9.60727069913879 106.61400278963784
67.44255028148689 9.008860068746133 110.58786932312616
67.57571835725204 8.437541787520699 115.21495401133662
67.91872068551871 8.196690596066988 119.72269931206337
68.12118300180586 8.035201761457655 124.30149417453342
68.47148140109316 7.7712696036513975 128.71114326009945
68.62703104372378 7.7850107661 133.4080985740379
68.6570781584709 7.684392595803866 137.95737022481939
68.98539385749298 7.746808427051433 142.66322045187349
68.96625295003255 7.611665814717611 146.92133748372396
69.0036918842687 7.209958992173187 151.43093237412714
68.81643295288086 7.012244909367663 155.94322983762052
68.78227233886719 6.696023077434964 160.45172593858507
68.91182708740234 6.508798159085787 164.85029484675482
68.89090131676716 6.531262066053308 169.61589094521344
68.40484472823469 6.972926636264749 174.0640509618472
67.39995547375047 7.759251715189003 178.1388237275273
66.37240568796794 8.590500500467089 182.83665805392795
65.85246170623392 8.531229888336568 187.56915824020965
65.79675076612786 8.245509104942208 192.15117223938898
65.73685179085567 7.921727213366278 196.57048429291825
65.42140333993095 7.804231771400997 201.32963344029017
65.08667670355902 8.111939562691582 205.22632598876953
64.97494720458984 8.389815444946288 210.17041473388673
64.94066029210245 8.305545591538952 214.58305063555318
65.13513834883527 7.852060085389672 219.2161984327363
65.45782102387527 7.205863952636719 222.43670233364762
70.41163032168434 18.5133147194272 51.72980103265672
71.27957388070914 17.074145537156326 40.90311079758864
72.09031424762534 16.15113401412964 54.144906174364706
75.56142717162615 15.697248642969315 58.10704993465232
70.88036346435547 11.919541872464693 53.395189431997444
78.33142109921104 14.835879221297146 61.83876047636333
80.75630507102379 13.760681450366974 65.63075929421645
82.93257916853732 13.094843547616229 69.25689093058541
87.24083630243938 13.165419386492836 71.60161421034071
82.20956921759452 12.394722035822978 74.83888040790121
82.17753194173177 11.358884161489982 79.25040921811704
82.65323998317245 10.399617021734064 83.66258056892836
83.1860208714262 9.684812369921529 87.62024634611522
83.77616418691782 9.148181108328012 92.23868073683519
84.27949297630181 8.697814262519449 96.531468084303
84.70763972548188 8.316916426674265 101.24143631731877
85.09485337393625 8.092828001294817 105.52979583740235
85.44762129350143 7.80312835519964 109.97028510353782
85.58814605464781 7.525737564738204 114.4265957964145
85.68030901822176 7.210227060317993 119.01433930830522
85.74482411786545 6.787863297895952 123.49655346831014
86.0124752609818 6.193855117868494 127.93890409116392
86.28691516113281 5.716457504272461 132.51730822753908
86.71585115822413 5.430638026165706 137.1052933559623
87.08892226219177 5.14200680454572 141.48791281382242
87.33367057899376 4.853705393803584 145.59611867929434
87.81091002055577 4.738878067050662 150.49429484776087
88.3967227470584 4.5698551375691485 154.96921148532775
88.67113942464192 4.542251281738281 159.5373087565104
88.93555698394775 4.542081409692765 163.835929107666
89.46665992736817 4.6502666091918945 168.76968643188476
89.4663814502758 4.64907677095015 172.91963598230382
88.89995250701904 4.574593293666839 178.01427097320556
88.20185891684 4.6584139427581395 182.12014631791547
87.4921396891276 4.9986789464950565 186.56575571695964
87.37292785644532 5.2582229961048474 191.21722800514914
87.46579754938844 5.456694102678143 195.49782824907146
87.7442502339681 4.838326319058736 200.60041936238608
87.95632892184787 4.444680681935063 204.37850697835287
88.27952671051025 4.301543426513672 209.14237327575682
88.5369296949737 4.244805112177012 214.07562473842077
88.61119220131322 4.227288798282021 218.32957819888466
88.74123183540677 4.238818521084993 221.62118994671366
89.4646863171654 13.835469294638528 75.56085177233619
91.27852084252142 14.711420053051365 79.75219480452999
92.66806494394937 15.505501842498779 84.11347618103028
93.77935097434305 15.899897188573451 88.50280116154597
94.48452736990792 16.142039905275617 92.73899743216379
95.20066658777135 16.0974640081857 97.34834505037497
95.83878855551443 16.313831029399747 101.7770317446801
96.33776441113702 16.994164006463414 106.17226469105688
96.50701504661923 17.622040939331054 110.6964098975772
96.93058197314923 18.192369332680336 114.8009760929988
97.16107888057314 17.953662576346563 119.5534251640583
96.73989804585774 17.961194240685664 124.16280133796461
96.50503882292276 17.649302954985718 128.46625369063048
96.71091176042653 17.51342783070574 132.97228109956993
96.77142692565918 17.63258052825928 137.49653274536132
96.86966232017234 17.36640163704201 142.13829930623373
97.06622707969264 17.274725642957186 146.7639065391139
97.20924996270074 17.225295321146646 151.06314459906685
97.38882541656494 17.09153711795807 155.40061950683594
97.58119374401164 16.88501138507195 159.7752256573371
97.5427474975586 17.19555634567418 164.7945430794942
97.45709809389982 17.33626502210444 169.2922094518488
96.84820437144084 17.133979705442865 173.90922399314053
96.31978143964496 16.870562485286168 178.1529927934919
96.0210668170263 17.037326479715013 182.97299097454737
95.23344302177429 17.43966943025589 187.82757806777954
95.40655840360202 17.415470600128174 192.17392965463492
95.80141571589878 17.163795505251205 196.42542348589217
96.4532285991468 16.135959775824297 200.70845593904195
96.73445822975852 15.02569767923066 205.2665470007694
96.69768422444662 14.649590555826823 210.23395207722982
97.11449853997482 14.260562746148361 214.59280997828432
97.43725649515788 13.581233051088121 218.52610058254666
97.5710932413737 13.048360188802084 221.27846442328558
